# x,y,z
118.857,-85.223,0.302
8.116,7.486,0.618
26.594,2.561,0.120
-141.834,-75.882,0.705
26.059,66.999,0.183
115.296,-76.757,0.187
88.910,-39.212,0.114
238.800,168.759,0.624
75.046,105.570,0.705
144.006,-140.122,0.228
37.850,-56.279,0.847
-144.993,269.568,0.832
100.712,29.523,0.053
-185.118,125.558,0.281
113.021,10.218,0.251
-392.736,80.655,0.826
399.254,434.273,0.242
-15.748,205.439,0.624
-211.870,-113.742,0.072
105.404,162.309,0.185
-234.319,-325.222,0.550
57.336,-30.825,0.137
-282.948,-155.234,0.830
53.108,37.215,0.953
72.931,101.688,0.245
-12.407,-206.442,0.267
321.451,24.529,0.765
-207.789,-187.604,0.970
311.809,11.486,0.988
-125.651,-79.508,0.169
29.529,-187.234,0.199
104.340,-16.210,0.620
389.779,295.576,0.759
89.397,-136.139,0.267
127.956,444.546,0.812
162.052,-28.301,0.308
-17.965,224.583,0.766
271.846,-247.482,0.142
8.356,-60.404,0.466
-59.420,-131.742,0.418
-8.535,-167.427,0.531
19.500,66.510,0.076
-119.274,84.837,0.269
-61.663,222.716,0.455
-167.917,108.901,0.964
114.229,168.518,0.707
-88.638,25.148,0.733
257.295,-183.112,0.258
2.109,163.506,0.053
153.864,136.787,0.482
28.470,-65.849,0.425
8.988,-15.634,0.445
343.919,145.557,0.488
-140.876,-138.828,0.050
-195.294,58.768,0.237
-42.220,162.691,0.805
219.758,147.934,0.845
-198.423,-49.976,0.344
317.246,-450.578,0.740
18.799,-212.711,0.181
271.689,10.324,0.187
-62.492,-32.843,0.508
-246.840,-191.066,0.103
62.369,-84.370,0.282
68.574,-60.286,0.754
-71.216,-123.979,0.365
9.929,-209.915,0.880
35.057,8.772,0.713
171.976,-120.601,0.410
186.268,59.688,0.639
-103.334,63.461,0.166
20.204,-22.334,0.173
-67.145,-349.253,0.065
-174.818,84.573,0.757
-92.673,317.120,0.734
250.789,-216.084,0.991
-413.378,80.926,0.047
186.613,-542.867,0.992
163.047,-235.714,0.042
-285.280,21.171,0.283
-12.460,-155.497,0.933
-261.850,81.501,0.631
-100.444,-312.995,0.856
448.117,23.931,0.135
183.305,212.608,0.546
82.653,18.841,0.054
-31.369,134.915,0.734
22.739,-158.501,0.129
141.389,-247.783,0.168
-3.237,421.036,0.057
-66.443,-114.337,0.186
-284.284,-539.745,0.728
221.263,-228.127,0.725
352.917,-243.584,0.951
-137.845,-479.327,0.295
41.091,-93.510,0.138
288.778,105.989,0.769
354.648,319.288,0.592
88.849,257.664,0.691
135.425,-28.675,0.209
-163.754,-322.191,0.741
11.298,342.014,0.116
305.967,-288.805,0.681
-186.441,194.894,0.075
-217.745,6.827,0.102
77.378,192.451,0.236
-229.114,353.769,0.462
291.133,145.359,0.444
-69.003,-43.448,0.301
154.055,-43.988,0.719
-90.833,-69.510,0.301
187.919,-279.730,0.215
23.071,61.077,0.987
-128.693,28.015,0.145
4.826,299.141,0.591
-542.458,-62.761,0.333
-17.460,181.556,0.317
228.615,331.583,0.929
-7.645,-75.606,0.344
-195.688,90.884,0.095
-130.263,124.973,0.732
-217.015,225.779,0.901
182.549,59.058,0.175
-241.473,222.032,0.363
80.923,21.658,0.967
-94.930,-122.777,0.519
-206.390,93.181,0.969
222.280,-130.331,0.159
408.705,66.796,0.808
-29.412,-9.599,0.801
480.601,141.911,0.028
-97.667,-61.866,0.863
-35.182,-203.382,0.162
254.923,169.484,0.683
411.577,118.016,0.208
-84.560,63.374,0.112
-97.586,-13.514,0.845
-80.920,105.253,0.599
51.774,186.492,0.625
119.229,139.685,0.855
-271.125,-23.392,0.929
-47.072,-71.123,0.289
-163.495,-140.713,0.417
-123.172,301.394,0.389
106.836,-310.439,0.760
-142.944,-60.822,0.082
-128.380,196.601,0.794
87.081,-184.357,0.553
-151.734,367.074,0.690
376.056,91.491,0.703
64.746,198.414,0.238
-65.491,213.275,0.144
456.802,320.128,0.779
430.107,-90.315,0.025
33.995,-22.320,0.733
-258.526,112.737,0.921
14.623,24.529,0.589
-44.193,65.407,0.540
36.181,-6.173,0.524
-215.067,-190.835,0.799
605.116,-8.831,0.994
-245.294,107.062,0.627
163.293,-228.567,0.604
-438.573,-342.116,0.002
-23.640,194.587,0.233
283.491,-74.363,0.676
173.986,-152.759,0.887
-30.798,15.783,0.279
-25.285,-517.354,0.276
-507.163,-50.073,0.346
-77.571,-306.944,0.800
-514.867,-162.850,0.092
-260.424,69.004,0.762
-287.401,-67.826,0.343
29.190,75.235,0.861
253.829,-110.892,0.648
15.401,205.533,0.557
259.547,-132.665,0.696
8.519,96.958,0.665
259.489,-12.408,0.786
-175.805,179.338,0.987
120.549,22.900,0.299
-132.725,-183.756,0.285
-258.195,-217.271,0.490
3.440,11.588,0.112
129.359,137.963,0.759
-74.653,-146.053,0.501
-172.102,-34.314,0.545
-128.661,256.393,0.140
-416.079,282.158,0.078
-459.825,-115.514,0.288
-135.382,-308.659,0.382
314.220,-106.936,0.348
85.717,60.397,0.113
-84.031,374.861,0.265
110.206,-201.739,0.977
33.158,15.365,0.354
-178.549,-16.430,0.324
-18.584,432.546,0.898
-121.039,-71.523,0.215
-274.939,7.348,0.412
67.850,-5.084,0.725
-347.426,510.821,0.474
187.858,-70.734,0.258
87.811,10.471,0.619
340.946,120.914,0.461
319.093,-189.040,0.985
-35.167,384.008,0.912
6.178,-14.805,0.690
-117.420,6.488,0.580
374.259,-163.342,0.042
-206.072,84.575,0.368
182.712,-115.733,0.734
67.977,-36.115,0.292
-22.736,-126.609,0.821
31.120,-207.239,0.132
-47.937,128.710,0.792
-233.666,182.318,0.485
180.165,-241.284,0.064
-242.175,420.415,0.821
-98.840,109.584,0.427
338.368,-155.156,0.459
-123.323,-32.942,0.732
16.042,146.545,0.228
-108.061,-389.055,0.637
-143.601,-72.967,0.570
482.518,340.056,0.407
51.354,301.427,0.588
44.209,-136.529,0.213
235.665,-220.008,0.481
-49.587,-136.859,0.730
582.350,-118.514,0.870
-211.444,140.002,0.744
-256.550,68.523,0.458
308.572,-58.126,0.017
190.313,348.130,0.467
-153.997,-271.219,0.067
213.321,24.814,0.387
-138.246,199.292,0.097
-260.117,-126.332,0.716
109.471,-272.370,0.281
-37.887,145.556,0.131
176.373,-20.301,0.550
19.167,342.187,0.354
-187.602,129.349,0.963
-17.780,-408.202,0.729
-213.894,-46.219,0.063
-46.175,57.370,0.844
5.761,-324.678,0.774
-170.244,42.113,0.318
-172.427,33.985,0.073
77.701,-228.859,0.973
-370.101,-31.707,0.210
63.717,11.121,0.630
185.488,-247.835,0.023
-188.553,185.173,0.624
18.728,-205.810,0.745
-209.439,192.561,0.977
-126.055,-135.239,0.230
155.038,187.522,0.756
-563.655,135.795,0.939
176.841,22.458,0.311
-407.532,-15.901,0.758
243.713,465.032,0.906
0.526,-259.216,0.600
89.862,-314.233,0.252
25.950,-327.294,0.811
-58.666,149.080,0.934
-43.651,-315.197,0.665
93.161,45.033,0.579
-144.201,-39.381,0.409
-237.355,62.215,0.450
144.450,-48.622,0.922
211.316,-172.482,0.026
89.993,267.713,0.526
-180.974,-248.401,0.056
187.904,-232.366,0.031
115.793,75.092,0.108
328.148,52.659,0.820
354.416,251.379,0.474
239.759,57.080,0.440
-120.660,17.513,0.182
307.052,147.774,0.874
-137.150,21.314,0.787
-82.551,-363.093,0.387
458.205,-187.558,0.212
-39.767,-367.028,0.099
120.078,154.918,0.281
198.333,-486.865,0.045
293.194,-143.322,0.390
-26.973,-198.218,0.720
-302.357,-160.525,0.735
40.379,108.263,0.806
32.624,-544.131,0.387
-334.953,-422.489,0.691
-331.715,-123.957,0.974
-227.933,78.648,0.869
343.275,-105.230,0.276
29.981,-456.912,0.408
-123.775,18.411,0.826
417.377,378.334,0.350
-114.168,-73.794,0.249
-69.696,-189.042,0.625
-2.908,-39.375,0.502
247.758,-224.235,0.682
-221.639,-33.457,0.107
-257.864,5.192,0.138
-119.592,491.957,0.276
-124.229,-147.682,0.839
-1.494,162.781,0.414
-261.320,22.446,0.876
262.090,-188.573,0.323
256.019,15.980,0.095
159.003,-139.743,0.582
-79.291,-191.204,0.264
-100.699,-178.454,0.189
-519.454,-397.599,0.359
7.589,84.906,0.780
287.343,257.081,0.913
186.150,4.726,0.471
32.742,-81.392,0.214
126.137,-119.276,0.226
236.864,-271.102,0.544
-171.611,134.562,0.184
-328.517,328.036,0.526
-204.110,-39.376,0.459
-41.185,11.581,0.024
-110.547,226.885,0.635
81.026,33.352,0.728
-250.688,-211.959,0.544
-33.603,-190.350,0.626
140.449,-223.597,0.500
-137.385,-197.963,0.343
105.953,-180.708,0.391
-62.691,-223.494,0.548
-310.118,-88.606,0.660
-46.547,118.745,0.216
321.310,-138.855,0.832
260.301,104.032,0.551
-51.957,-225.275,0.777
-27.238,101.289,0.309
134.128,245.056,0.757
138.101,32.190,0.384
-75.350,-8.903,0.069
-130.029,-377.013,0.051
-153.620,-364.410,0.496
-496.246,213.128,0.687
-45.071,208.134,0.348
274.932,-309.017,0.843
228.403,-9.760,0.693
-4.697,-127.497,0.138
-0.732,-125.935,0.886
-257.388,-21.237,0.655
109.976,241.947,0.927
-42.169,182.547,0.333
-51.438,-293.153,0.573
301.903,247.524,0.268
-352.678,-387.475,0.165
-103.809,-203.296,0.506
-124.727,18.408,0.594
-267.566,-137.720,0.888
-122.460,321.725,0.904
-312.090,298.252,0.506
-410.547,-180.816,0.765
-50.113,-99.781,0.893
-313.286,47.448,0.219
393.817,-89.631,0.984
158.824,11.759,0.268
7.771,-128.758,0.166
-418.390,-23.379,0.271
-486.956,138.969,0.997
182.090,90.970,0.200
-144.960,214.242,0.701
-257.676,-123.777,0.576
79.607,217.866,0.158
67.875,462.529,0.686
35.669,4.562,0.363
222.078,204.742,0.894
352.205,296.288,0.246
-149.738,-39.510,0.335
14.146,-244.846,0.393
-35.747,147.376,0.883
25.664,66.651,0.734
311.687,-7.070,0.728
53.308,-65.088,0.934
-121.092,109.472,0.097
52.383,114.710,0.273
-90.040,153.838,0.600
208.484,-83.918,0.818
-342.656,-75.093,0.949
-46.357,-119.992,0.136
206.823,165.275,0.250
-181.483,-208.414,0.700
252.200,-368.866,0.703
-154.837,226.521,0.037
-58.487,-147.314,0.765
278.825,-98.573,0.451
-152.738,-468.948,0.093
-247.901,-369.755,0.408
44.879,53.967,0.405
383.756,168.974,0.745
127.331,65.447,0.209
-164.914,-69.119,0.500
-284.535,-235.747,0.793
23.825,299.728,0.865
-349.525,315.386,0.248
-238.301,70.124,0.150
192.878,-232.525,0.862
-39.830,-388.200,0.353
-90.096,-122.142,0.349
-215.974,-85.600,0.639
-202.863,268.361,0.931
127.233,12.251,0.445
424.606,-298.680,0.675
-232.906,-37.407,0.584
-417.279,-133.983,0.914
134.457,-365.825,0.006
-38.702,329.483,0.872
25.384,-13.436,0.833
-83.383,150.174,0.525
35.108,-385.090,0.887
283.970,296.792,0.971
70.923,-116.930,0.310
-32.931,400.271,0.060
-97.302,165.618,0.010
133.524,369.881,0.083
-141.761,297.300,0.322
13.502,180.635,0.600
585.918,-108.246,0.224
-79.100,-295.241,0.152
224.024,91.063,0.197
-37.424,-12.184,0.364
-140.072,237.387,0.560
-14.409,217.663,0.975
57.496,-284.280,0.322
194.310,170.278,0.762
111.657,-46.886,0.332
471.308,223.406,0.344
50.524,162.722,0.270
-400.134,226.036,0.906
-95.517,107.174,0.310
67.679,-106.602,0.711
-168.948,-207.612,0.640
399.550,-108.655,0.911
-93.867,-8.319,0.741
-48.766,236.438,0.472
-204.962,36.866,0.135
202.022,-59.622,0.843
-137.258,12.952,0.625
148.034,44.024,0.691
-61.326,-371.871,0.081
-30.350,348.599,0.142
353.623,7.048,0.785
-103.469,-554.263,0.894
-110.718,206.175,0.462
-38.016,-0.584,0.638
-71.170,362.597,0.478
256.680,-197.386,0.178
182.884,-85.415,0.817
-91.209,310.969,0.890
0.107,-257.723,0.948
-6.000,183.511,0.633
416.038,259.061,0.982
-73.001,289.334,0.341
-108.728,19.732,0.326
191.020,-63.904,0.620
-17.172,-324.280,0.845
-120.585,-119.000,0.552
35.566,-156.689,0.443
217.849,-134.051,0.428
-114.563,17.741,0.915
22.578,160.279,0.583
308.740,229.706,0.480
305.709,-35.013,0.002
275.901,344.994,0.516
181.015,282.304,0.744
-215.676,147.350,0.114
185.172,220.151,0.108
-76.929,-35.232,0.012
221.862,267.401,0.571
-38.005,-148.408,0.442
203.745,218.695,0.882
201.569,-214.774,0.575
301.668,135.048,0.029
102.897,145.910,0.210
-121.677,83.062,0.542
219.970,33.141,0.986
92.486,39.523,0.806
354.271,155.323,0.067
101.551,43.403,0.821
22.224,-170.210,0.486
-19.188,-11.410,0.622
-108.453,-138.550,0.440
113.616,-169.261,0.473
-233.148,-163.039,0.682
-96.026,96.317,0.484
-148.338,-523.739,0.440
-133.778,-433.354,0.453
99.408,-232.522,0.821
-166.154,-375.443,0.567
-184.305,225.721,0.415
16.174,-208.448,0.876
-370.479,204.826,0.687
152.770,-89.201,0.647
-175.381,185.990,0.026
-107.088,-53.063,0.120
-142.487,-116.099,0.884
-147.215,-222.650,0.189
-48.271,-67.450,0.058
-161.567,-58.599,0.880
62.379,119.976,0.331
-52.135,-280.145,0.306
526.966,1.766,0.476
-198.174,6.348,0.031
30.806,169.720,0.054
39.564,-167.764,0.689
201.612,139.467,0.944
258.504,42.128,0.307
122.158,-173.479,0.016
-220.372,-31.924,0.295
-94.032,-163.642,0.741
217.005,29.522,0.452
-156.599,-119.139,0.217
404.643,103.160,0.799
244.426,140.922,0.351
81.162,-6.413,0.885
153.710,-123.209,0.937
281.259,-8.514,0.815
420.686,157.586,0.998
310.061,374.842,0.455
326.048,192.764,0.983
161.364,-127.368,0.642
-192.064,34.460,0.678
207.912,-199.980,0.518
-359.623,-352.256,0.083
-72.923,52.179,0.046
318.759,-69.557,0.163
-61.348,-214.421,0.078
-12.617,-280.999,0.112
-59.128,309.790,0.779
225.204,14.502,0.681
112.797,-69.721,0.766
-434.196,-332.445,0.300
79.874,-238.438,0.066
316.828,96.368,0.027
-27.402,-197.990,0.108
378.100,-158.021,0.332
-145.133,188.880,0.795
386.170,295.301,0.810
-178.258,191.409,0.951
649.892,367.044,0.147
141.699,105.307,0.923
476.774,-446.645,0.548
-189.256,-17.305,0.602
-137.082,11.836,0.835
-375.788,-193.116,0.929
-162.262,186.626,0.563
-300.122,214.516,0.582
346.946,-248.342,0.423
356.729,158.703,0.109
-118.544,-451.151,0.040
3.572,79.092,0.303
176.645,-215.280,0.161
-23.652,273.527,0.395
-478.529,-6.384,0.932
397.171,77.997,0.887
-39.999,292.282,0.788
78.705,162.236,0.365
-68.059,-691.788,0.036
-161.168,83.785,0.102
61.446,-222.749,0.514
-532.030,307.862,0.098
57.048,-117.470,0.005
104.103,340.377,0.645
-302.066,-353.213,0.375
-40.692,18.765,0.852
114.869,-96.876,0.135
221.331,166.590,0.895
107.511,76.187,0.753
75.587,-95.621,0.774
47.794,-29.025,0.749
-39.693,-127.207,0.847
166.274,279.140,0.732
135.258,9.855,0.629
-14.365,96.112,0.075
132.024,-161.763,0.345
16.202,-29.420,0.247
-38.331,-148.209,0.215
-29.858,18.479,0.350
132.785,215.878,0.010
284.211,-244.516,0.115
63.740,570.758,0.326
-112.220,252.277,0.120
-267.664,-185.562,0.251
543.134,56.643,0.759
352.619,174.415,0.011
288.664,-104.758,0.217
-60.182,-20.596,0.746
300.448,58.826,0.469
-38.040,389.975,0.620
-34.484,-92.971,0.801
25.461,-36.002,0.264
391.050,1.362,0.289
-53.178,361.368,0.102
-2.231,91.306,0.813
73.409,-62.498,0.355
-106.064,124.023,0.317
-0.308,137.969,0.240
-309.815,127.783,0.697
40.754,20.609,0.171
-81.638,-4.633,0.773
-444.264,19.036,0.920
-15.693,-82.885,0.929
172.870,-131.281,0.299
-52.519,28.247,0.198
-129.589,64.661,0.535
85.539,-29.541,0.016
-25.764,-296.719,0.099
61.411,-22.274,0.701
-80.060,-157.754,0.900
156.677,-270.977,0.752
-216.361,65.522,0.062
-266.396,297.492,0.438
75.063,135.058,0.218
197.355,143.958,0.018
-52.689,-24.653,0.018
-251.610,-164.809,0.422
146.569,-51.940,0.866
-5.074,-142.522,0.326
141.135,-297.448,0.067
-39.338,114.166,0.157
-99.771,349.844,0.183
-92.301,-205.389,0.009
-228.137,-138.748,0.803
196.676,147.127,0.729
-300.920,-153.861,0.776
426.048,72.003,0.913
-168.439,-90.663,0.605
8.879,-18.551,0.397
-109.391,-244.620,0.124
-75.826,169.023,0.188
254.093,-92.880,0.789
-129.247,-104.898,0.925
66.535,288.627,0.184
-122.909,-67.449,0.104
177.115,374.142,0.101
-293.457,172.745,0.320
-115.994,-270.257,0.468
-151.437,108.453,0.407
-80.870,-6.130,0.043
14.834,-31.936,0.958
-325.725,-28.779,0.807
-253.092,119.804,0.408
-52.742,-169.253,0.390
-33.169,-68.674,0.377
96.675,-40.371,0.366
-11.873,-86.289,0.987
94.672,74.774,0.208
-44.679,333.716,0.047
-185.511,165.420,0.649
-468.301,88.276,0.734
-126.853,-259.411,0.690
-239.730,31.906,0.031
65.649,-58.386,0.477
69.698,298.439,0.687
-337.584,-38.828,0.626
-43.618,-118.194,0.253
162.065,-224.768,0.645
-167.535,-228.996,0.960
394.429,-222.254,0.049
131.649,45.942,0.270
-385.117,-205.778,0.306
28.229,-99.490,0.730
55.523,172.794,0.471
-21.541,61.780,0.595
72.668,-412.775,0.124
-104.539,78.900,0.189
-223.347,83.892,0.606
-108.229,-55.431,0.773
-162.554,386.947,0.269
-19.892,-3.385,0.173
133.573,81.633,0.303
-175.333,131.956,0.155
189.393,200.497,0.367
37.237,344.321,0.823
-297.961,16.328,0.024
-38.513,76.656,0.823
119.235,-356.216,0.680
-0.455,-132.135,0.036
420.981,313.290,0.587
-311.533,13.415,0.775
-202.488,163.511,0.241
-371.053,64.702,0.046
29.359,194.030,0.120
160.002,27.783,0.984
156.331,347.509,0.239
-2.648,368.135,0.931
-2.992,-309.539,0.292
-192.379,176.587,0.453
-262.555,111.908,0.596
-85.296,143.732,0.203
-178.545,-99.363,0.576
-18.473,28.927,0.409
-0.377,225.452,0.576
89.565,158.831,0.218
-2.374,61.546,0.256
-52.877,-68.123,0.303
19.685,-24.381,0.778
348.051,-13.246,0.004
-79.376,115.443,0.608
-55.171,-236.409,0.503
184.480,-89.904,0.912
62.496,281.349,0.691
275.988,-77.626,0.161
-61.176,17.336,0.834
-335.044,161.718,0.590
365.178,224.676,0.631
-45.533,162.477,0.615
-20.323,-28.914,0.323
216.929,41.498,0.959
140.077,-79.387,0.948
-163.646,64.723,0.521
289.301,90.875,0.971
52.013,171.451,0.790
30.651,10.404,0.753
213.787,246.386,0.306
-86.847,95.185,0.604
-74.638,-139.467,0.119
-341.236,-139.405,0.173
-356.183,-175.033,0.117
46.840,-85.732,0.286
-158.342,-30.065,0.989
73.125,147.499,0.416
-73.448,270.645,0.221
-224.375,-404.826,0.354
-221.156,-123.726,0.772
-98.741,100.041,0.904
-18.028,-117.183,0.036
372.848,316.281,0.514
-122.235,-207.128,0.160
40.495,-167.659,0.941
264.553,69.157,0.790
-338.321,-78.146,0.060
57.544,38.961,0.486
13.332,-221.121,0.573
59.738,-59.208,0.690
-126.119,-73.933,0.251
13.426,203.285,0.100
60.591,-32.838,0.041
-50.742,-147.163,0.920
19.579,-7.222,0.479
228.542,-211.876,0.731
-130.396,39.779,0.227
354.046,38.245,0.454
-109.154,-261.574,0.890
311.974,59.057,0.095
28.104,-276.165,0.735
288.294,-149.452,0.757
156.215,-23.968,0.383
-118.580,-178.217,0.129
-6.600,-107.885,0.688
5.760,-10.852,0.178
44.078,-176.824,0.888
-328.179,87.177,0.343
-0.765,-100.172,0.484
-294.144,267.815,0.718
-104.048,149.316,0.841
324.637,144.305,0.809
47.513,-193.019,0.085
-30.544,1.798,0.398
-128.945,254.858,0.186
163.033,-69.338,0.735
26.593,162.040,0.801
79.394,37.520,0.823
-346.989,188.849,0.245
-81.339,58.146,0.613
-26.765,87.006,0.969
46.946,-64.703,0.709
-111.450,55.816,0.220
188.248,25.975,0.792
69.539,196.390,0.790
-389.319,12.249,0.088
117.978,125.190,0.461
93.836,86.861,0.524
415.812,-96.434,0.640
147.254,-381.416,0.007
159.206,-40.723,0.198
402.371,52.521,0.508
53.801,-190.735,0.602
-84.414,-166.985,0.376
-123.633,-42.432,0.160
-13.791,325.459,0.321
237.877,-4.131,0.720
-8.396,417.162,0.396
356.090,226.138,0.823
201.029,135.935,0.818
-5.014,-309.914,0.622
-36.845,65.375,0.126
-153.307,-198.327,0.905
-194.514,-0.893,0.910
192.854,-224.811,0.152
-123.614,-172.726,0.701
-125.983,71.025,0.957
225.262,30.574,0.466
256.997,94.177,0.159
91.194,107.655,0.729
-31.828,98.975,0.524
183.177,-113.703,0.989
77.336,190.359,0.005
161.184,322.377,0.427
-216.964,165.202,0.573
483.672,181.594,0.166
-222.423,-205.706,0.311
-408.531,9.228,0.899
-73.834,94.077,0.098
28.825,329.537,0.705
-381.459,70.682,0.149
-127.988,-110.220,0.066
-35.923,-161.868,0.061
83.646,-159.151,0.073
259.269,-85.358,0.174
82.717,48.827,0.288
396.547,-134.420,0.809
32.610,-22.767,0.476
-210.621,294.902,0.176
-38.581,-87.541,0.019
147.940,-69.731,0.397
5.318,355.076,0.462
-129.669,-89.432,0.227
137.428,-115.642,0.485
60.464,-158.708,0.991
-206.831,104.784,0.654
-224.711,-35.943,0.102
-68.094,128.975,0.983
-190.928,499.082,0.625
29.654,170.788,0.930
-29.583,-24.380,0.810
-120.931,141.027,0.675
326.168,-6.915,0.357
-188.155,-22.137,0.419
-322.287,12.503,0.271
64.201,143.813,0.334
90.396,130.468,0.683
-133.007,-127.175,0.751
-8.858,-144.002,0.597
-20.770,-296.203,0.688
-63.680,56.417,0.920
30.521,225.155,0.072
-203.253,13.699,0.713
80.182,-125.935,0.926
-453.134,-311.612,0.330
135.302,119.999,0.537
-138.790,155.474,0.015
-57.748,232.446,0.625
-37.336,-351.955,0.601
202.530,63.904,0.273
45.897,229.179,0.671
119.458,-285.872,0.200
58.271,137.226,0.792
494.489,49.281,0.969
48.333,387.629,0.713
-127.230,-304.032,0.671
-170.801,116.845,0.798
-590.337,-20.697,0.418
-0.921,223.574,0.923
81.095,85.867,0.461
-14.023,258.298,0.083
-460.878,-224.063,0.040
-26.289,-5.767,0.414
-123.115,-192.170,0.547
-262.602,177.614,0.186
457.921,109.162,0.326
235.368,83.289,0.686
-162.154,87.919,0.924
258.910,9.365,0.681
-22.561,-253.718,0.512
103.880,71.833,0.857
51.705,201.160,0.686
-83.028,-307.240,0.579
-191.350,-174.319,0.097
213.565,63.510,0.682
77.428,-149.301,0.121
263.974,99.805,0.690
210.577,53.684,0.663
-447.284,29.944,0.249
-183.760,43.380,0.053
72.333,-282.625,0.507
261.157,111.229,0.491
-140.431,-201.614,0.249
-84.736,42.412,0.062
25.207,19.788,0.919
11.536,66.802,0.287
-19.626,40.753,0.123
-123.064,172.783,0.212
24.673,198.371,0.796
248.244,89.629,0.875
-57.961,-169.964,0.465
-123.266,492.264,0.738
-293.751,230.838,0.365
-25.146,-140.922,0.049
-59.241,-32.206,0.655
175.838,-293.531,0.189
131.844,196.838,0.168
250.173,-25.555,0.258
-531.384,172.364,0.916
70.528,-208.313,0.893
-143.298,-160.613,0.568
183.374,-68.802,0.570
107.701,-429.363,0.945
1.647,236.549,0.975
78.481,201.531,0.993
-98.402,-94.492,0.686
-255.414,169.454,0.153
10.416,105.976,0.438
50.041,-421.371,0.398
93.623,90.382,0.165
-153.662,-328.493,0.221
-68.531,-94.018,0.994
-98.515,-94.886,0.088
-348.689,92.243,0.754
-414.028,375.479,0.617
283.698,20.366,0.150
192.875,-34.625,0.515
172.861,84.490,0.090
272.690,-49.065,0.924
69.094,-390.478,0.174
-208.824,-194.968,0.671
-6.146,-351.341,0.158
163.492,112.297,0.828
216.655,191.371,0.199
-332.858,-161.230,0.778
114.298,34.519,0.861
93.332,18.265,0.148
416.683,-173.652,0.513
-78.958,-19.024,0.395
27.710,-128.409,0.247
161.898,6.553,0.830
141.411,285.867,0.214
-152.816,-42.666,0.182
83.842,419.917,0.543
113.120,-39.199,0.239
-153.439,-120.298,0.994
65.664,132.228,0.634
259.960,23.355,0.842
-319.128,-72.313,0.235
-95.804,74.186,0.537
94.768,367.641,0.707
190.395,-124.342,0.243
48.361,81.183,0.931
253.467,-53.135,0.940
-235.413,4.105,0.037
258.273,45.808,0.381
-182.543,-186.265,0.595
9.682,-116.584,0.241
-112.935,233.948,0.792
-163.616,127.540,0.356
149.713,162.804,0.425
-18.503,65.219,0.524
-109.600,85.288,0.407
123.475,160.176,0.270
-286.089,310.757,0.401
-76.573,179.525,0.767
-114.915,-211.709,0.949
-198.332,164.196,0.393
-155.144,274.323,0.005
-16.092,110.100,0.456
3.435,-136.197,0.799
152.296,163.778,0.126
-56.312,-303.206,0.665
182.299,290.622,0.044
-17.871,14.470,0.293
203.657,26.346,0.572
-111.923,-72.245,0.997
183.987,194.269,0.098
247.879,80.186,0.131
-95.900,193.618,0.592
-140.015,26.071,0.712
-47.350,273.894,0.279
96.797,188.767,0.052
-4.773,-227.352,0.140
216.788,154.546,0.522
-354.111,341.840,0.003
-154.031,28.916,0.696
-4.166,178.522,0.827
222.833,109.232,0.606
-59.842,369.015,0.283
121.854,180.143,0.777
-307.357,268.812,0.834
-110.179,-240.587,0.750
-217.812,70.320,0.783
174.428,38.472,0.558
-72.716,0.689,0.008
45.107,-292.538,0.190
262.519,-44.649,0.329
-160.851,-19.294,0.255
422.202,96.451,0.972
333.684,384.142,0.922
18.254,105.499,0.923
11.427,-214.748,0.965
80.604,-228.930,0.163
-184.510,92.986,0.820
-82.232,-50.442,0.566
-340.155,116.193,0.987
271.653,529.318,0.151
104.376,-99.863,0.991
180.870,-185.107,0.721
288.311,-122.942,0.160
-83.046,58.013,0.440
-62.636,-322.936,0.002
241.549,207.933,0.133
102.538,-42.756,0.682
289.035,149.268,0.663
-187.752,23.373,0.530
14.763,36.240,0.155
16.970,-138.491,0.750
157.467,295.657,0.568
12.431,-39.303,0.652
-399.893,-35.210,0.811
355.856,114.932,0.069
100.641,-7.196,0.391
221.578,66.304,0.405
35.296,-249.369,0.535
184.576,179.298,0.761
293.647,127.225,0.817
114.313,-28.058,0.171
60.828,-53.873,0.102
498.406,-353.818,0.468
-305.632,-132.086,0.547
4.999,96.256,0.279
-134.644,-121.539,0.013
-353.579,-79.750,0.646
-200.459,109.025,0.987
296.457,35.115,0.614
-230.568,120.631,0.888
-32.695,-177.514,0.038
-15.622,-267.348,0.284
-141.321,-118.703,0.491
-167.828,53.161,0.761
-172.747,462.225,0.662
576.396,-380.862,0.820
63.989,476.448,0.859
303.461,133.189,0.582
-108.022,-123.104,0.401
270.895,-177.641,0.821
84.067,218.367,0.369
179.290,-93.377,0.929
-304.539,-127.794,0.315
57.976,-10.205,0.366
-45.216,267.648,0.060
-121.771,109.703,0.903
-235.067,361.749,0.735
43.056,-66.076,0.319
178.968,-39.214,0.766
26.857,-420.122,0.793
251.439,-402.482,0.972
-139.364,-221.447,0.391
-228.035,-62.054,0.564
115.039,-170.321,0.829
-123.734,-74.112,0.729
137.878,-60.077,0.141
284.859,125.598,0.212
-284.151,268.358,0.872
100.226,-55.228,0.686
9.768,-126.897,0.196
44.449,11.758,0.120
385.639,200.963,0.176
-192.430,117.499,0.073
-307.361,101.698,0.432
-38.346,-0.825,0.261
119.690,283.741,0.607
213.273,108.023,0.967
192.302,-172.505,0.436
-34.706,34.152,0.594
-24.584,78.597,0.443
-64.878,-194.827,0.599
-192.855,186.383,0.317
-12.391,204.596,0.305
21.710,93.021,0.131
-59.311,-23.394,0.017
102.876,141.993,0.147
-332.156,269.550,0.636
-86.830,279.538,0.209
133.486,-112.292,0.591
97.538,187.922,0.268
-299.777,-283.388,0.556
-328.491,183.859,0.905
216.613,-47.913,0.839
-9.080,-203.873,0.774
-139.627,-19.725,0.063
-9.822,475.721,0.189
422.179,234.869,0.854
-151.781,136.276,0.120
-243.442,-255.725,0.395
255.336,6.757,0.549
459.433,297.128,0.705
-33.061,-59.835,0.296
-28.337,-363.454,0.074
-138.974,-132.279,0.549
90.226,218.605,0.503
94.393,165.531,0.861
205.658,-60.615,0.052
286.163,-180.647,0.443
328.418,147.974,0.986
-56.072,152.443,0.622
-64.437,179.577,0.494
-181.325,-211.979,0.353
1.123,18.406,0.926
124.812,-57.385,0.367
-56.710,-138.655,0.777
69.991,61.718,0.938
229.523,-25.036,0.943
-211.361,146.151,0.264
-192.616,100.868,0.726
-169.237,322.199,0.620
44.573,-310.098,0.845
82.035,333.186,0.020
235.516,342.378,0.064
-78.953,9.430,0.079
167.629,-23.076,0.266
42.876,6.312,0.693
233.348,37.567,0.539
101.361,38.507,0.416
-23.970,-61.697,0.430
13.951,-67.128,0.168
200.978,401.126,0.560
-0.049,174.852,0.191
126.908,-118.064,0.763
27.885,-104.980,0.867
84.903,100.536,0.753
-283.801,-22.320,0.463
352.877,-44.624,0.105
22.532,-169.959,0.830
269.682,-347.619,0.912
305.086,-136.990,0.612
-397.845,26.497,0.840
-273.409,-370.298,0.493
-58.066,-69.258,0.634
-88.307,195.266,0.267
55.861,-41.375,0.828
-421.043,-156.215,0.618
-79.017,-190.260,0.420
-86.347,109.012,0.061
80.192,-151.781,0.433
-27.495,49.389,0.527
-262.996,217.855,0.793
-151.578,224.198,0.676
-62.450,196.199,0.674
-161.860,-199.878,0.272
261.337,12.085,0.205
-38.003,260.274,0.338
-83.515,-153.265,0.202
-56.573,50.975,0.561
-41.183,57.418,0.562
190.283,-87.573,0.336
155.671,-168.460,0.130
150.976,103.379,0.813
164.475,53.740,0.337
168.271,248.551,0.540
151.775,18.096,0.637
-316.183,-40.582,0.007
114.050,-102.726,0.297
23.012,46.282,0.040
84.251,-316.999,0.419
50.619,49.786,0.503
-60.036,66.272,0.397
-201.412,113.130,0.382
321.040,248.689,0.323
3.172,-154.330,0.795
-46.706,135.397,0.030
-72.999,-349.763,0.967
117.997,-85.102,0.090
415.937,-168.967,0.486
-47.651,-191.690,0.183
-466.657,313.711,0.141
-109.318,-30.465,0.227
-5.798,-25.735,0.205
456.396,-48.774,0.419
109.367,-27.214,0.269
418.482,202.832,0.587
59.404,218.965,0.644
29.110,481.478,0.872
-186.860,-228.268,0.497
85.458,-18.656,0.574
-216.180,486.693,0.361
101.896,15.855,0.029
254.971,-119.149,0.474
-172.531,-88.846,0.552
93.881,106.174,0.963
59.109,-14.795,0.436
250.966,-136.054,0.194
187.480,-40.707,0.991
129.057,7.448,0.026
-404.917,-268.009,0.701
-165.063,85.459,0.825
171.583,-96.858,0.153
320.302,51.427,0.489
160.562,287.590,0.105
339.862,354.497,0.015
4.189,411.303,0.202
-288.243,328.937,0.507
187.110,-75.396,0.479
-358.784,-27.133,0.038
215.659,-77.603,0.154
-97.138,40.475,0.410
438.650,51.138,0.484
-437.953,246.133,0.376
398.424,247.649,0.873
-120.735,6.666,0.319
-301.215,-368.776,0.160
191.565,140.104,0.898
-334.859,162.442,0.685
385.046,-149.487,0.231
131.337,-84.477,0.787
73.422,340.961,0.168
-227.143,-281.880,0.341
-148.301,-67.523,0.287
294.942,-154.350,0.920
-450.860,-294.642,0.349
112.353,-216.655,0.595
-103.247,65.431,0.608
-175.735,102.369,0.658
-162.200,103.479,0.362
-199.529,191.373,0.673
-119.261,-126.143,0.811
287.966,146.329,0.171
116.456,105.897,0.324
324.615,223.817,0.753
56.131,158.276,0.204
-270.242,137.378,0.304
251.504,224.692,0.571
112.174,-356.081,0.789
31.551,-170.700,0.298
-443.892,250.887,0.004
100.535,299.389,0.713
55.356,-26.491,0.939
14.184,250.076,0.571
-82.739,-199.077,0.281
264.202,377.850,0.727
238.763,-338.031,0.894
51.193,17.801,0.191
493.388,28.230,0.447
-13.275,-145.990,0.177
93.631,-257.935,0.606
121.485,-90.048,0.810
-98.158,225.055,0.920
-284.996,-244.338,0.294
31.506,11.570,0.266
221.275,-100.037,0.983
-74.730,-167.803,0.785
-110.438,-55.101,0.276
480.191,-310.962,0.002
-343.857,-564.521,0.547
-186.028,323.998,0.488
-41.263,-64.541,0.396
272.906,107.520,0.629
-131.057,15.415,0.274
-121.463,361.724,0.481
180.434,44.747,0.053
172.502,-292.056,0.428
112.707,155.410,0.935
-5.290,-12.698,0.979
160.538,-33.388,0.003
83.865,-76.397,0.342
-362.505,-315.765,0.343
-189.111,23.690,0.489
-125.644,22.625,0.825
33.752,-20.237,0.078
108.385,4.376,0.581
-87.138,-45.874,0.691
-164.285,195.153,0.036
391.103,136.552,0.535
186.418,63.301,0.676
10.848,108.304,0.049
4.580,-131.549,0.087
-3.184,162.001,0.322
-362.905,56.704,0.914
-30.800,139.357,0.018
16.950,217.886,0.495
-179.265,197.683,0.400
-54.828,91.666,0.118
-222.187,-426.242,0.383
-45.224,5.484,0.150
101.478,36.128,0.584
-17.303,31.995,0.991
348.288,-177.587,0.166
-104.554,-177.562,0.835
-235.001,37.664,0.317
-25.577,-267.372,0.494
-153.637,142.827,0.501
201.997,-154.984,0.358
-254.807,-164.678,0.320
-0.982,-115.113,0.630
200.344,-40.609,0.761
-385.280,-264.983,0.211
186.364,131.169,0.770
208.927,71.588,0.744
-215.500,58.064,0.867
18.406,-181.284,0.228
77.069,-220.834,0.832
-46.442,-235.635,0.425
-231.627,201.724,0.937
70.389,-275.521,0.056
70.432,-50.782,0.584
233.457,-124.175,0.170
180.386,-456.172,0.070
-0.082,-117.078,0.806
98.117,-72.329,0.631
152.079,-157.925,0.689
82.689,-90.772,0.875
356.516,86.648,0.168
-166.124,72.378,0.811
-9.503,-109.203,0.743
47.684,-93.370,0.184
-233.743,-138.529,0.903
-158.888,-113.761,0.828
204.459,-120.463,0.654
-5.642,123.672,0.192
-20.827,57.482,0.234
-345.784,71.002,0.516
-23.958,74.973,0.487
109.689,-182.650,0.331
-252.306,69.332,0.385
-154.499,162.331,0.755
-90.802,29.947,0.350
-166.908,282.470,0.639
305.197,261.386,0.320
-76.155,-181.702,0.210
157.451,338.423,0.464
-52.589,-268.560,0.193
435.198,237.928,0.341
7.192,-80.756,0.002
-466.334,202.162,0.250
-106.955,155.413,0.226
-361.529,-82.728,0.209
279.017,256.257,0.350
-17.559,-204.386,0.075
338.213,-39.550,0.867
-232.966,-487.722,0.298
337.735,135.381,0.716
227.328,165.472,0.330
-2.017,-40.852,0.757
126.854,222.039,0.026
209.357,358.028,0.790
37.026,-300.829,0.089
-122.986,-21.832,0.739
138.402,-157.258,0.562
-573.617,-344.010,0.812
316.005,-179.533,0.806
-150.105,-134.415,0.807
275.566,145.111,0.832
80.525,102.518,0.457
64.040,259.328,0.860
86.427,-163.513,0.346
184.034,57.817,0.135
-100.943,231.679,0.675
-47.960,-59.220,0.319
215.954,156.952,0.847
-71.712,247.522,0.600
362.670,-134.731,0.066
144.660,-178.901,0.616
-31.308,-292.205,0.210
-118.842,-232.729,0.351
83.344,-426.065,0.765
-14.672,-246.434,0.081
143.182,-309.976,0.376
-629.177,-117.968,0.472
-126.074,144.216,0.604
-103.195,86.201,0.888
-5.268,314.832,0.147
89.409,51.281,0.452
422.985,86.583,0.714
280.424,-454.010,0.428
28.704,45.516,0.096
-63.142,-228.589,0.168
123.979,-42.118,0.644
204.619,357.121,0.865
-142.953,-55.757,0.123
-25.202,239.776,0.093
-253.006,68.005,0.001
-9.791,-98.532,0.315
-105.943,-111.777,0.408
-275.261,5.516,0.140
285.463,-140.580,0.158
-10.416,176.350,0.724
-174.337,83.717,0.455
166.993,230.719,0.456
168.204,181.598,0.057
110.222,289.835,0.335
64.944,131.127,0.623
-49.035,103.149,0.671
29.524,87.820,0.713
21.130,-117.434,0.769
-39.233,41.309,0.215
-219.332,81.116,0.392
-117.310,-80.849,0.678
-240.263,339.263,0.808
-149.532,-233.277,0.300
-68.399,290.234,0.866
288.920,137.171,0.126
71.254,-26.669,0.336
-333.685,-40.908,0.309
-220.459,106.844,0.929
-349.670,-48.787,0.476
-93.771,140.328,0.710
-108.714,113.588,0.758
436.149,76.379,0.820
-167.082,-123.176,0.482
24.805,54.706,0.537
-6.115,31.034,0.076
-259.761,-385.578,0.505
209.771,-351.576,0.201
-295.164,-252.889,0.083
-43.885,103.380,0.321
30.992,-37.262,0.453
-118.214,-243.815,0.211
-20.676,173.359,0.082
-157.101,-242.114,0.198
306.670,210.306,0.700
-99.460,414.352,0.951
218.218,94.734,0.604
16.363,153.703,0.193
46.440,-91.505,0.321
207.434,268.166,0.064
-150.644,-12.510,0.531
-7.250,226.135,0.514
-605.580,-170.510,0.263
-112.720,228.868,0.575
-444.469,97.996,0.200
-50.695,-200.534,0.127
120.363,-313.600,0.359
-498.764,96.771,0.552
-335.706,352.230,0.250
442.125,-5.175,0.647
188.947,396.002,0.212
-333.303,583.016,0.547
43.717,-453.190,0.538
243.519,75.488,0.023
170.477,164.589,0.181
104.829,-120.431,0.760
-285.001,296.972,0.932
3.918,225.460,0.011
270.757,-178.199,0.293
128.736,196.939,0.070
144.204,-29.452,0.895
248.761,-277.672,0.134
368.110,-59.746,0.253
27.055,49.145,0.383
-278.462,146.313,0.312
-242.145,-15.083,0.467
89.281,-167.653,0.024
43.528,-100.835,0.018
138.113,-20.854,0.944
336.446,-52.676,0.814
-265.792,-274.866,0.875
377.165,76.033,0.322
112.589,83.735,0.822
296.215,64.981,0.913
199.988,435.221,0.501
93.511,-186.294,0.371
5.157,9.968,0.661
45.544,129.457,0.650
-216.752,-471.490,0.418
-1.799,-295.062,0.908
261.509,170.239,0.692
142.270,-109.737,0.869
-223.936,-15.747,0.907
-46.277,25.981,0.575
-358.822,-16.661,0.443
101.358,216.584,0.899
443.625,-202.168,0.583
6.076,142.499,0.970
174.120,-179.259,0.838
-228.631,218.655,0.407
-224.442,-81.795,0.428
-97.926,-56.067,0.897
96.570,59.639,0.084
-171.678,-69.006,0.937
150.051,-61.034,0.029
-288.899,169.808,0.294
312.793,-194.400,0.830
114.247,198.699,0.772
336.406,78.838,0.727
-33.512,-142.421,0.415
-436.400,-80.509,0.997
198.567,-271.903,0.320
37.049,-20.934,0.373
298.053,184.904,0.040
109.185,75.207,0.763
42.040,-263.533,0.880
-648.806,-7.622,0.491
-97.504,-148.257,0.008
3.380,148.663,0.811
113.645,255.777,0.658
-228.519,-163.985,0.365
154.886,226.033,0.636
-126.548,-190.536,0.667
-191.559,114.620,0.990
280.516,346.320,0.711
-297.333,237.241,0.316
-10.860,179.228,0.902
-50.624,37.201,0.289
96.220,-178.239,0.639
31.828,-10.514,0.637
44.401,-68.881,0.169
24.599,94.267,0.673
-280.706,69.516,0.103
112.016,-411.809,0.475
2.806,-30.356,0.398
-119.464,201.485,0.518
42.706,-241.948,0.083
153.328,-54.731,0.139
-117.196,-298.231,0.297
34.013,-218.007,0.683
268.040,-386.021,0.682
54.919,111.470,0.153
16.116,-206.908,0.771
360.795,69.037,0.947
35.369,-124.385,0.342
-57.901,209.867,0.430
-90.712,38.327,0.658
-278.910,114.983,0.173
213.851,93.752,0.614
-23.847,1.024,0.050
42.023,161.856,0.859
-156.069,-18.896,0.025
156.247,-377.458,0.196
5.481,30.156,0.126
-292.799,-135.828,0.508
47.288,-47.949,0.390
-33.133,149.751,0.369
105.273,-39.770,0.347
-30.886,-108.533,0.434
-66.788,61.820,0.413
291.736,139.556,0.236
-203.561,327.893,0.360
1.253,-103.155,0.985
229.798,-16.896,0.640
12.683,13.576,0.303
1.006,29.214,0.778
-298.958,-121.252,0.199
84.895,41.776,0.826
-90.815,88.626,0.306
97.624,438.930,0.594
-131.081,151.452,0.662
334.508,-94.412,0.120
-35.302,38.564,0.908
-405.007,20.745,0.345
-37.362,69.675,0.166
187.161,48.889,0.566
-291.697,101.575,0.945
102.722,-58.730,0.902
11.172,-178.823,0.606
317.716,-173.534,0.047
-74.975,-23.464,0.416
-379.101,157.911,0.980
151.145,-365.039,0.480
-38.797,-30.293,0.810
18.595,177.905,0.120
54.873,-12.070,0.204
-144.127,-78.019,0.360
-41.822,16.007,0.025
23.130,-15.855,0.695
411.669,-366.786,0.359
79.392,53.003,0.879
23.278,-296.546,0.460
-169.197,-89.074,0.042
-398.709,25.581,0.718
-43.155,345.542,0.879
-90.126,167.695,0.401
-179.557,99.723,0.227
323.987,139.736,0.618
254.359,172.692,0.399
-335.589,-253.569,0.550
-198.216,-53.264,0.690
-74.285,159.232,0.066
180.827,152.963,0.362
-262.540,37.136,0.045
199.053,-59.874,0.491
-579.842,-166.384,0.637
96.410,30.153,0.739
-236.409,-112.337,0.463
-115.120,-262.147,0.611
193.405,318.511,0.571
-137.880,-118.855,0.178
-234.489,166.846,0.375
330.789,-229.244,0.997
-61.949,515.041,0.558
448.160,344.516,0.009
157.932,-171.250,0.855
-73.589,-131.832,0.466
91.814,68.409,0.645
-28.456,19.281,0.600
-83.752,-131.071,0.583
-95.068,-209.246,0.136
-242.858,-69.952,0.021
39.908,-279.841,0.395
67.877,106.534,0.682
289.572,88.711,0.468
-109.286,-94.122,0.018
-62.047,-19.685,0.379
64.592,-115.022,0.348
-226.508,-93.843,0.254
15.568,-131.732,0.524
-329.559,-125.489,0.658
222.845,269.079,0.856
263.733,300.695,0.124
-55.544,-526.620,0.309
91.252,157.357,0.719
-191.399,-391.435,0.912
-56.658,-58.969,0.055
60.113,-61.940,0.421
-174.320,-5.326,0.933
190.996,519.375,0.991
356.800,-67.945,0.767
-152.521,-160.150,0.218
149.991,-375.679,0.330
-0.722,74.361,0.664
436.688,8.261,0.131
-135.297,-96.191,0.428
186.617,224.493,0.913
-92.809,-164.977,0.498
89.424,177.545,0.408
23.777,-98.233,0.888
-59.242,106.412,0.475
-8.369,-56.951,0.939
202.093,-155.691,0.516
58.693,-396.173,0.589
-156.418,-2.013,0.242
285.571,-147.847,0.988
-1.651,37.985,0.462
-90.771,-310.834,0.654
-56.873,113.244,0.940
-101.277,101.330,0.818
74.823,-62.626,0.106
-202.583,81.328,0.221
-110.808,-185.418,0.520
258.885,-175.685,0.221
-179.704,-235.684,0.838
-94.356,-45.150,0.096
-128.851,71.958,0.340
-84.189,97.307,0.545
-74.573,298.233,0.275
111.699,-141.188,0.739
-329.630,-101.909,0.150
305.914,129.263,0.014
394.357,-153.570,0.372
-181.168,24.579,0.403
-62.770,-29.149,0.137
-102.717,-85.803,0.109
155.077,110.114,0.661
-483.276,185.620,0.647
-20.358,151.619,0.080
461.992,-20.275,0.213
-90.135,-72.879,0.702
230.661,-347.645,0.678
-267.721,-176.235,0.757
-126.215,-26.582,0.868
-288.678,201.675,0.469
256.874,202.981,0.289
-47.839,141.592,0.885
16.960,-50.977,0.789
-77.199,-10.841,0.046
-18.316,1.623,0.051
-567.057,292.660,0.591
-427.559,95.048,0.964
4.998,-36.075,0.329
-231.332,-95.722,0.736
-109.771,-37.489,0.650
-199.326,-138.668,0.440
-161.669,-319.844,0.883
-176.939,193.767,0.589
196.116,-288.920,0.095
-111.289,51.152,0.544
248.375,310.947,0.791
-83.972,-152.828,0.482
-26.760,186.498,0.701
132.602,4.525,0.144
112.824,-160.274,0.507
134.736,286.221,0.464
-19.795,55.244,0.098
-27.462,2.301,0.765
-134.784,226.152,0.115
164.643,-183.478,0.245
-115.875,-167.773,0.156
316.944,-182.858,0.263
-389.525,-82.778,0.886
-134.080,-91.313,0.687
-68.040,-76.934,0.255
-29.783,-54.955,0.932
199.801,119.382,0.650
-520.299,33.509,0.730
13.556,-278.347,0.704
-252.032,-146.832,0.310
-10.818,-80.244,0.304
155.560,210.098,0.840
-54.926,-150.987,0.690
-183.651,-135.827,0.817
54.399,241.027,0.654
142.455,41.804,0.868
-154.071,-274.147,0.733
22.716,-243.038,0.655
273.294,-53.219,0.929
-177.726,-256.429,0.103
40.389,33.306,0.125
-67.152,509.792,0.138
-67.815,241.828,0.117
-31.981,107.060,0.314
17.206,78.853,0.987
312.281,-265.525,0.381
-197.729,-74.169,0.338
137.043,75.995,0.930
0.053,-142.850,0.292
244.932,423.833,0.655
-164.595,149.448,0.261
71.024,-365.394,0.924
86.468,-81.919,0.273
139.225,184.785,0.290
-75.008,220.556,0.585
-36.059,-27.065,0.526
177.980,-194.421,0.939
-125.107,710.772,0.194
-230.212,159.164,0.799
269.871,234.109,0.250
-174.213,-46.588,0.393
322.408,-81.532,0.738
426.624,-67.475,0.306
89.843,201.717,0.580
-209.200,-57.669,0.728
134.842,119.644,0.500
120.494,-189.908,0.368
365.115,65.095,0.704
-118.267,-174.722,0.011
-536.296,0.374,0.211
218.178,-147.151,0.665
-119.565,-185.239,0.874
364.648,26.325,0.162
-332.201,-454.223,0.171
-132.347,-18.643,0.223
-74.867,189.953,0.661
-191.806,93.918,0.890
-190.632,-30.212,0.092
145.511,-193.668,0.559
-151.425,-459.209,0.077
167.673,56.676,0.892
126.757,-137.199,0.868
-228.119,-101.305,0.915
-149.688,62.314,0.069
-164.196,62.185,0.747
-460.722,235.111,0.773
27.597,286.873,0.441
-148.265,29.920,0.276
211.923,-307.760,0.660
282.064,-87.960,0.937
-57.199,-147.206,0.374
119.478,251.784,0.264
186.774,259.283,0.648
235.419,561.413,0.206
314.603,89.068,0.395
70.475,118.099,0.799
364.789,171.177,0.209
120.223,113.137,0.930
-1.760,25.088,0.458
-80.789,-254.969,0.180
271.751,277.602,0.180
-15.564,-105.146,0.588
-101.018,50.829,0.765
204.627,167.503,0.291
-118.072,83.392,0.154
185.151,-324.343,0.060
39.676,-326.704,0.815
-23.713,18.078,0.622
227.694,108.114,0.785
13.744,-485.735,0.793
-114.578,159.143,0.464
-11.341,38.240,0.293
-410.434,334.655,0.225
-96.626,-206.038,0.450
-97.180,81.858,0.912
-18.466,-57.666,0.446
222.623,188.430,0.893
235.782,-2.933,0.978
-220.201,157.941,0.364
191.967,-178.495,0.113
-515.956,-118.525,0.729
-219.426,-34.665,0.670
199.404,-204.667,0.811
130.417,303.678,0.047
95.726,62.590,0.864
-84.119,-150.261,0.347
196.400,43.238,0.600
-56.866,49.969,0.887
-27.569,-68.036,0.347
-85.552,356.310,0.919
-171.204,72.321,0.274
-255.334,134.790,0.212
-166.783,146.702,0.436
101.341,99.909,0.150
-356.831,233.305,0.864
-623.495,73.957,0.478
198.481,-115.924,0.615
92.397,343.575,0.507
253.923,-183.207,0.347
-193.356,134.500,0.871
-54.107,-470.908,0.611
-209.919,-249.070,0.979
-19.295,54.295,0.752
-406.053,56.380,0.518
493.770,90.516,0.459
-266.832,165.955,0.781
-72.287,-34.161,0.417
42.043,286.896,0.475
317.274,-40.803,0.521
330.075,328.547,0.182
89.763,-147.033,0.609
-129.949,-404.974,0.213
18.561,-350.803,0.112
-71.982,192.166,0.848
139.593,43.848,0.896
96.697,34.626,0.873
101.271,386.063,0.107
310.879,-76.239,0.858
-190.530,279.163,0.609
-88.812,-295.444,0.468
237.935,-248.913,0.090
301.062,-85.569,0.937
-52.386,452.713,0.785
375.710,-67.075,0.265
45.312,-22.490,0.777
155.796,184.316,0.415
160.950,97.577,0.581
-203.451,151.515,0.122
184.776,-273.191,0.642
-18.559,-250.544,0.026
236.730,16.999,0.262
-77.282,63.808,0.318
390.422,-176.062,0.429
22.351,-45.999,0.426
185.400,158.969,0.445
-71.825,18.807,0.112
126.607,14.090,0.257
-100.670,28.033,0.735
67.837,33.747,0.193
-97.498,-75.913,0.952
-96.511,106.686,0.350
-39.527,20.439,0.601
-42.452,274.915,0.874
-224.274,188.223,0.643
-37.187,582.580,0.790
229.013,-70.966,0.390
-245.336,10.689,0.807
-256.328,-53.660,0.208
123.270,38.681,0.216
94.893,159.277,0.211
-205.777,40.722,0.982
-66.259,112.666,0.147
-179.870,-71.237,0.798
101.700,-383.761,0.804
244.295,74.228,0.210
-489.327,-279.425,0.581
71.322,-383.755,0.852
362.254,-252.291,0.928
-327.490,8.194,0.809
158.163,-202.250,0.606
-46.546,136.987,0.642
-188.216,100.655,0.839
672.000,231.916,0.156
55.208,68.703,0.094
-272.305,148.935,0.419
-92.428,36.630,0.449
45.803,-13.638,0.512
277.839,-174.460,0.103
-106.368,-23.256,0.182
-106.910,-61.224,0.090
383.745,-121.916,0.995
-215.171,-174.192,0.608
126.795,261.182,0.671
-25.032,142.682,0.654
-214.965,372.431,0.687
-0.406,102.375,0.751
-286.329,39.596,0.971
-110.570,-68.961,0.509
150.692,-200.551,0.781
273.690,340.024,0.452
71.677,-31.045,0.754
-383.419,-65.070,0.769
-71.946,-122.714,0.178
-131.557,209.905,0.607
53.570,38.688,0.038
74.680,57.009,0.537
-55.519,461.831,0.202
-34.517,-12.062,0.375
131.539,-332.537,0.112
-119.812,-28.161,0.432
-95.224,-92.210,0.728
293.116,247.153,0.910
-150.931,-105.244,0.572
-45.613,-274.289,0.240
-221.183,248.224,0.503
11.991,-75.272,0.375
-244.997,2.456,0.184
163.120,131.370,0.456
-58.758,-43.824,0.639
-240.897,27.251,0.982
17.710,49.700,0.552
-51.124,-253.737,0.169
50.266,107.181,0.602
-143.880,309.538,0.555
7.892,-242.272,0.470
83.855,-67.347,0.977
185.994,41.759,0.139
-34.757,-91.134,0.539
-30.661,156.775,0.804
-134.647,57.316,0.054
143.777,-442.836,0.765
-166.995,-252.484,0.438
127.752,-552.530,0.364
264.566,121.883,0.850
233.346,20.572,0.057
-176.961,76.693,0.331
276.116,-220.173,0.500
-274.662,-129.021,0.512
-68.556,-80.250,0.184
-11.693,253.463,0.383
138.837,435.808,0.618
-213.967,-19.928,0.294
205.772,-89.070,0.320
-145.050,-16.544,0.254
99.176,-308.912,0.245
199.294,-150.921,0.938
-92.914,-22.395,0.259
-161.158,-32.726,0.397
-128.551,118.423,0.208
-317.093,-122.029,0.745
0.599,156.265,0.761
-114.608,336.141,0.471
108.430,-50.748,0.186
122.966,218.449,0.674
312.530,93.184,0.928
114.137,390.652,0.368
-410.689,95.078,0.367
359.828,175.988,0.326
114.414,167.344,0.727
-4.871,227.928,0.757
183.243,20.315,0.274
-126.455,-200.457,0.721
-51.944,277.559,0.950
-236.797,-238.861,0.587
184.271,358.764,0.384
-35.006,128.550,0.610
171.508,-13.079,0.237
137.257,-88.809,0.686
-255.153,-21.785,0.950
-254.198,78.550,0.946
328.006,77.493,0.571
-260.353,140.951,0.238
165.879,-188.956,0.322
357.544,211.627,0.333
136.091,184.542,0.442
-135.101,-263.548,0.570
-56.361,-118.763,0.393
49.255,-140.353,0.683
-72.540,112.939,0.269
-141.528,-2.910,0.315
-0.273,-19.109,0.918
127.356,-429.854,0.565
-113.885,104.333,0.906
140.399,9.819,0.815
-205.560,195.881,0.199
-122.870,-131.472,0.725
212.655,141.473,0.175
-129.015,0.730,0.241
-319.220,100.215,0.131
238.049,74.816,0.186
181.753,-22.589,0.716
-121.543,-11.728,0.698
125.794,310.573,0.388
-118.848,-194.816,0.045
149.479,-167.655,0.554
181.614,196.662,0.404
61.946,-112.783,0.378
20.195,-34.368,0.782
72.790,-77.641,0.419
-307.385,0.557,0.616
-62.491,35.475,0.019
-90.954,115.076,0.351
-293.441,-46.711,0.214
-136.501,193.815,0.578
55.509,198.284,0.080
203.631,59.522,0.254
34.503,94.932,0.969
73.782,78.466,0.046
-89.994,-96.954,0.614
95.881,-96.902,0.768
-103.820,-242.936,0.878
235.129,-232.257,0.102
31.477,-140.102,0.003
-97.327,-234.580,0.163
-60.407,-32.705,0.146
30.128,12.453,0.376
123.595,-33.619,0.343
