# x,y,z
-98.584,-16.770,9.674
60.755,79.428,78.044
-99.980,-2.009,43.784
83.738,54.662,171.802
81.759,-57.581,159.450
-99.921,3.968,123.493
78.254,62.261,105.357
-25.423,-96.714,32.931
84.238,53.888,59.833
-98.716,-15.971,68.391
91.833,-39.582,164.221
-95.340,30.170,118.461
-99.810,-6.163,80.861
-67.940,73.376,182.895
97.181,23.578,160.636
71.676,69.732,37.102
-71.986,69.412,149.599
19.756,-98.029,199.292
-76.903,-63.922,8.444
27.461,96.156,24.991
-0.451,99.999,77.375
99.692,7.847,86.924
-46.665,88.444,29.629
84.351,53.712,166.479
-88.201,47.123,87.197
50.815,-86.127,194.840
80.589,59.207,115.530
-94.176,33.628,90.668
99.874,-5.017,159.560
-82.401,-56.658,125.592
-56.433,82.555,16.227
-15.635,98.770,7.849
-89.665,-44.275,75.261
36.293,-93.182,19.672
-67.454,73.824,57.973
-99.768,6.815,96.610
-70.534,-70.887,74.027
21.201,-97.727,157.939
84.129,-54.058,27.182
11.129,99.379,128.277
4.941,99.878,172.053
98.447,17.555,133.155
51.958,-85.442,127.930
95.402,29.974,166.257
46.021,-88.781,63.523
99.990,1.431,70.093
89.208,-45.187,180.672
-92.122,38.905,192.862
-4.861,99.882,173.318
-82.099,57.095,84.544
-34.233,-93.958,86.912
68.414,72.935,119.115
-45.916,-88.835,135.110
-79.848,-60.202,112.607
88.324,-46.893,0.629
97.645,21.573,66.710
71.174,-70.244,160.315
33.353,-94.274,62.636
-62.625,77.962,13.572
85.492,-51.876,181.188
96.154,-27.468,92.763
31.109,-95.038,9.451
90.573,42.386,134.365
-65.012,75.983,9.015
-77.521,-63.170,190.049
42.536,-90.503,25.138
-28.401,95.882,77.847
77.668,62.990,199.826
-80.133,59.822,131.426
60.063,-79.952,170.117
93.454,-35.586,101.383
96.375,26.680,157.918
-99.937,3.536,145.484
-74.781,66.391,64.891
84.679,-53.193,97.961
76.271,64.674,148.274
96.530,-26.113,178.741
-26.115,-96.530,77.304
-88.071,47.366,68.220
46.192,-88.692,15.257
-99.530,9.682,63.000
-90.396,42.762,9.789
-6.110,99.813,100.488
-91.139,41.153,142.816
59.706,-80.220,105.087
95.081,30.978,69.804
17.393,-98.476,184.681
-43.140,-90.216,138.056
64.844,-76.127,16.899
27.035,-96.276,91.618
-97.879,-20.488,27.359
99.880,-4.901,136.580
20.820,97.809,0.310
-91.064,-41.320,100.169
-82.634,-56.317,28.504
-9.990,-99.500,155.024
-63.308,-77.409,119.381
-5.009,99.874,95.358
-51.308,-85.834,105.987
-47.673,-87.905,151.919
39.725,-91.771,171.756
-99.550,9.478,109.591
57.183,82.037,135.482
-88.917,45.758,163.401
-58.180,-81.333,39.092
-92.783,-37.301,52.609
-98.859,15.065,109.584
-85.773,51.410,149.393
9.710,99.527,198.694
-85.447,-51.950,31.382
20.792,-97.815,148.551
42.316,90.605,24.699
34.003,94.041,196.993
-99.926,3.844,195.111
-69.878,-71.534,19.083
-93.332,35.905,117.190
99.020,13.962,188.448
-61.461,-78.883,184.136
-99.972,2.361,182.193
-91.899,39.428,159.324
-99.782,6.592,85.133
67.791,-73.514,126.722
-82.304,-56.798,146.103
70.513,-70.908,111.891
44.896,-89.355,56.555
64.918,-76.063,189.279
12.137,-99.261,193.136
-45.596,-89.000,41.142
-99.291,11.885,84.494
99.872,-5.067,9.435
-78.768,61.608,20.746
44.046,89.777,53.571
-99.547,9.511,19.392
-67.632,73.661,167.433
99.175,12.816,16.066
-96.222,-27.228,198.881
-75.470,-65.607,11.848
-8.244,-99.660,18.758
-73.879,67.394,94.227
-45.298,89.152,43.648
-1.024,-99.995,102.994
-2.239,-99.975,135.748
-40.080,91.616,58.593
26.000,96.561,2.553
-35.432,93.512,73.642
53.583,-84.433,21.681
64.224,76.650,65.189
-3.678,-99.932,63.621
-72.352,-69.030,115.211
99.863,-5.232,163.909
35.333,93.550,191.064
-46.983,88.276,2.436
-9.793,-99.519,176.850
55.092,-83.456,84.775
47.456,88.022,15.302
-16.544,98.622,46.591
33.756,-94.130,102.449
73.241,-68.087,185.904
-33.977,94.051,138.373
57.201,-82.025,123.538
91.360,-40.661,129.247
-27.275,96.208,131.843
-98.288,18.423,155.965
-85.052,-52.594,128.073
80.473,-59.365,163.005
96.234,-27.185,27.610
-93.393,-35.746,14.153
99.688,-7.896,199.029
-77.517,-63.175,99.764
-98.237,-18.694,178.607
-68.230,-73.107,11.069
-48.900,87.228,55.059
1.027,-99.995,37.485
89.769,-44.062,182.868
29.662,-95.500,69.129
84.161,54.008,79.829
99.270,-12.057,179.867
90.957,41.556,120.805
61.077,-79.181,61.214
10.255,99.473,138.589
99.455,10.423,123.246
-6.301,-99.801,58.089
-98.136,19.220,9.667
-22.034,-97.542,186.245
-96.470,26.336,106.621
92.704,37.496,37.467
93.688,-34.966,198.040
-38.625,-92.239,86.553
-92.687,37.539,101.189
-98.404,17.797,155.480
98.134,19.229,170.925
-68.987,-72.394,190.738
-8.375,-99.649,101.237
99.394,-10.989,7.274
86.355,50.427,166.274
86.402,-50.346,44.188
68.287,-73.054,84.604
-46.743,88.403,155.730
-99.994,-1.110,154.962
-97.620,21.688,2.372
-97.465,22.374,143.692
69.179,-72.210,3.362
41.021,-91.199,23.129
99.318,-11.660,141.933
-97.192,-23.533,81.807
8.410,99.646,70.918
83.859,54.476,136.444
-21.978,97.555,81.762
-41.873,90.811,65.862
-93.636,35.104,58.315
2.984,-99.955,126.008
77.504,63.192,66.651
96.805,25.074,172.238
50.156,86.512,156.107
-20.703,-97.833,11.614
-89.855,43.887,156.549
92.249,-38.603,68.534
-90.509,-42.523,56.668
-90.092,-43.398,186.549
-86.948,-49.396,79.830
94.232,33.472,22.713
54.498,-83.845,52.971
88.816,-45.954,140.605
81.587,57.823,2.385
-72.595,68.775,75.137
-8.113,99.670,142.080
-48.709,-87.335,19.129
-55.463,-83.210,114.710
-25.136,-96.789,127.588
-65.843,75.264,52.835
25.758,-96.626,69.335
59.725,-80.205,154.325
-36.438,93.125,76.641
-77.357,63.371,7.104
99.715,7.538,58.090
21.234,97.720,122.352
20.226,-97.933,147.201
98.642,16.427,84.707
-79.635,-60.484,9.855
-26.086,-96.538,92.994
-36.649,-93.042,122.970
37.547,92.683,33.432
19.412,-98.098,66.370
-92.222,-38.665,91.093
99.619,8.723,52.084
99.557,-9.397,85.438
5.554,-99.846,92.318
96.694,25.502,47.076
-27.120,-96.252,4.322
85.573,51.743,180.959
28.567,95.833,80.096
99.857,5.346,149.999
-95.633,-29.229,93.421
18.182,-98.333,77.370
-66.501,74.684,192.380
-80.622,59.162,120.306
31.305,-94.974,6.218
30.070,-95.372,51.894
23.230,97.265,82.883
49.524,-86.876,4.055
-22.460,97.445,133.621
-38.241,-92.399,101.904
99.984,-1.814,29.158
-14.115,-98.999,195.982
83.368,55.225,28.024
95.367,-30.085,11.941
99.981,-1.960,46.693
-97.308,-23.045,84.076
98.589,-16.739,196.102
-59.732,80.201,24.433
-3.658,99.933,6.068
-46.634,88.461,151.950
63.390,77.341,124.022
66.980,-74.254,175.378
71.514,-69.898,163.212
-99.505,-9.939,186.943
42.293,-90.616,188.079
63.896,76.924,125.414
-99.415,-10.798,37.869
-52.115,-85.347,36.142
-74.473,66.737,140.977
86.825,49.612,57.311
-23.760,97.136,93.018
66.036,75.095,29.922
-6.636,-99.780,93.777
-58.341,-81.218,179.326
93.689,-34.963,184.522
94.089,-33.870,147.795
87.312,48.751,94.614
35.930,-93.322,116.720
86.229,50.641,138.695
52.301,85.233,113.806
-95.232,-30.511,147.464
98.443,17.577,199.286
34.914,-93.707,32.881
-98.252,-18.613,158.788
86.794,49.668,83.570
-98.832,-15.240,82.732
79.626,-60.496,5.509
84.445,53.563,146.087
-39.987,91.657,98.774
22.298,97.482,88.700
59.339,80.491,157.536
30.409,-95.264,162.945
-60.954,79.275,88.103
63.279,-77.432,73.686
-91.719,-39.846,38.319
55.953,-82.881,18.935
100.000,-0.238,108.932
-38.715,-92.202,167.359
-46.404,88.582,50.062
27.096,-96.259,26.687
-18.397,98.293,123.699
96.762,25.241,167.820
16.556,-98.620,66.362
-97.342,22.904,105.964
-53.588,84.429,38.262
-20.749,97.824,103.220
-82.123,-57.060,146.995
89.653,-44.298,135.261
54.171,84.056,186.877
46.540,88.510,172.958
-27.415,-96.169,199.606
99.856,-5.368,106.548
99.288,11.911,163.461
-43.071,-90.249,150.795
-79.261,60.972,137.226
74.367,-66.855,19.425
65.558,-75.513,181.028
49.710,-86.770,109.391
79.508,60.651,85.078
47.729,87.875,84.158
19.862,98.008,37.379
96.994,-24.336,93.076
85.206,52.345,184.737
-59.076,80.685,50.449
97.084,-23.973,87.672
-99.257,12.166,27.673
33.915,-94.073,26.270
-83.056,55.693,23.453
12.501,99.216,15.866
-9.110,99.584,47.101
-62.296,-78.225,54.219
-96.623,25.766,112.756
11.005,99.393,40.493
-99.471,10.270,115.894
-93.397,35.735,20.966
-97.443,-22.471,6.320
3.955,-99.922,90.109
-98.067,-19.565,62.872
-14.809,98.897,149.649
-99.918,-4.048,177.829
70.656,70.766,162.541
22.716,-97.386,158.182
-71.447,-69.967,190.174
-28.389,-95.886,167.229
-71.951,69.448,178.359
49.588,86.839,36.316
32.548,94.555,111.036
-35.717,-93.404,175.190
-86.976,49.347,133.892
19.805,98.019,84.402
98.268,18.529,53.591
95.424,-29.904,49.482
55.966,-82.872,144.511
-1.711,-99.985,87.210
-79.598,-60.533,128.917
-94.530,-32.621,159.258
-83.065,55.679,147.134
-69.110,72.276,158.650
99.992,-1.256,110.308
24.225,97.021,135.393
-97.657,21.522,132.197
3.688,-99.932,40.704
-98.331,-18.195,46.703
-86.474,50.221,173.281
-83.179,-55.510,45.721
-83.324,-55.291,161.400
-18.652,-98.245,164.757
-86.034,50.971,59.447
-99.537,9.612,149.230
-97.874,20.509,145.982
38.240,92.400,161.247
19.170,-98.145,77.542
-13.903,99.029,31.055
97.285,-23.143,95.492
42.527,-90.507,118.173
96.517,-26.164,155.971
-1.422,-99.990,52.626
-19.200,98.139,74.489
57.750,81.639,98.834
18.922,98.194,194.816
84.924,52.800,160.503
83.015,55.753,88.558
99.464,-10.338,8.931
-86.673,-49.878,142.762
-0.565,99.998,118.677
96.945,24.528,187.068
21.754,97.605,127.860
-94.805,-31.813,150.386
99.043,13.802,168.268
-83.871,54.457,31.515
-68.153,-73.179,84.750
92.403,-38.232,84.516
-67.223,-74.034,187.773
64.483,76.433,78.834
94.926,-31.449,180.739
-25.013,-96.821,19.989
-99.508,9.910,165.270
94.177,33.626,103.331
-61.726,-78.676,5.025
-45.129,-89.238,169.785
-23.145,-97.285,21.329
9.939,99.505,39.098
99.664,-8.186,77.271
92.296,38.491,144.731
9.004,99.594,87.027
99.443,10.537,88.066
-44.393,-89.606,41.968
-91.224,40.965,101.204
-67.825,-73.484,145.039
59.826,-80.130,199.806
-15.757,-98.751,117.301
-91.495,-40.358,63.825
-97.580,-21.867,73.883
73.211,-68.119,70.879
30.992,95.076,84.895
-79.101,61.180,68.544
80.690,59.069,32.161
88.822,45.941,157.548
75.507,65.564,128.202
-84.654,-53.233,61.098
59.210,80.586,169.752
-83.882,-54.440,109.575
-46.052,-88.765,0.795
96.771,-25.208,114.787
-2.153,-99.977,72.113
98.913,14.708,168.617
-58.518,-81.090,106.242
90.825,-41.842,109.966
98.706,16.035,54.115
97.331,-22.949,140.342
-66.011,75.117,68.666
26.783,96.347,36.450
92.855,-37.121,99.729
-37.401,-92.742,120.702
31.680,94.849,84.503
85.114,52.493,112.910
-98.420,17.708,109.661
24.576,96.933,41.632
69.878,-71.533,175.913
-94.945,-31.391,75.801
-98.000,19.898,110.909
73.899,67.372,6.362
50.143,86.520,99.495
80.590,59.205,185.468
-99.362,-11.275,104.472
-88.898,45.795,31.501
67.458,73.820,120.050
42.240,90.641,14.832
-99.993,-1.200,113.060
95.567,-29.445,78.149
-88.123,47.269,102.135
56.174,-82.731,90.243
-64.924,-76.059,54.464
60.643,-79.513,47.595
-18.590,98.257,31.118
-99.336,-11.507,47.958
59.833,80.125,77.255
-15.670,-98.765,174.162
-14.798,98.899,42.206
-97.682,-21.408,7.508
51.490,-85.725,9.315
85.124,52.478,25.837
98.680,-16.192,115.905
59.937,-80.047,157.042
6.639,-99.779,91.331
54.853,-83.613,41.270
99.894,4.611,82.949
96.999,24.315,171.899
83.961,54.319,45.902
79.719,-60.373,70.934
-70.349,71.071,180.427
59.128,80.646,75.496
33.331,94.282,138.200
-13.046,-99.145,67.476
97.162,23.656,186.922
-76.944,-63.872,129.021
92.336,38.394,138.755
54.132,84.082,48.758
30.871,95.116,95.611
-49.444,-86.921,173.882
39.699,-91.782,48.642
89.817,-43.965,16.034
90.386,-42.783,165.275
69.822,71.588,26.782
-38.233,-92.402,89.875
97.307,-23.050,168.031
-22.003,97.549,100.832
97.887,20.447,76.374
99.641,-8.464,176.931
69.364,-72.032,110.231
26.166,96.516,2.304
-86.064,50.921,142.836
-45.243,89.180,143.737
68.550,-72.808,21.404
-10.089,99.490,175.530
-90.117,-43.347,33.637
-19.022,98.174,138.704
51.578,85.672,40.164
58.702,80.957,166.861
-43.083,-90.243,195.052
72.101,69.293,195.862
32.394,94.608,90.616
97.628,21.649,55.005
-82.197,56.953,148.484
38.186,92.422,110.624
-80.568,-59.235,129.372
-97.318,-23.003,161.155
-73.708,-67.581,50.362
14.315,98.970,55.770
-86.080,-50.894,129.715
54.806,-83.644,136.791
-88.645,46.282,39.359
-93.870,-34.473,180.933
50.801,-86.135,51.573
26.478,96.431,0.722
-89.643,44.319,144.256
-37.589,-92.667,164.480
43.022,90.272,39.189
38.608,-92.246,101.866
94.483,32.755,51.802
13.523,-99.081,164.349
16.909,98.560,14.681
89.270,-45.065,63.132
-95.188,30.647,27.475
11.996,99.278,49.328
31.161,-95.021,11.669
41.758,90.864,75.585
-22.952,-97.330,97.528
-95.635,29.224,14.186
-42.894,90.333,95.927
24.917,-96.846,84.005
83.307,55.317,7.069
-70.631,70.790,170.555
-44.843,-89.382,100.684
-4.880,-99.881,23.396
-18.336,98.305,195.730
67.555,-73.732,2.424
-74.094,-67.157,162.051
-48.744,87.316,76.279
-35.572,-93.459,168.906
-99.838,5.693,119.924
-79.083,-61.203,18.058
71.317,-70.099,42.359
-83.091,55.641,116.113
-96.514,26.175,158.768
7.458,99.721,139.655
83.538,54.968,196.121
-96.478,-26.306,53.734
25.020,96.819,42.934
-77.759,62.877,183.709
-83.043,-55.712,132.482
88.944,-45.704,59.923
86.326,-50.477,155.985
79.392,-60.803,56.704
98.117,19.315,66.693
3.957,99.922,62.737
22.375,97.465,87.002
60.574,-79.566,150.761
63.024,77.640,161.054
-71.031,-70.389,153.354
88.296,46.945,73.171
-71.170,70.248,34.892
96.919,24.630,35.751
94.355,-33.123,192.783
4.415,99.902,118.008
-62.224,-78.282,62.006
-88.479,46.599,77.083
83.663,54.778,188.958
94.405,-32.979,112.111
19.569,98.066,75.235
93.129,-36.427,75.694
5.730,-99.836,168.531
15.790,98.745,185.767
93.388,-35.759,98.822
-7.100,-99.748,23.488
-26.191,-96.509,96.209
-9.888,99.510,110.486
7.891,-99.688,143.531
20.237,-97.931,22.395
85.425,-51.986,121.176
99.893,-4.621,118.643
-41.145,91.143,160.796
-93.047,-36.638,16.136
35.973,93.306,107.064
-55.124,-83.435,92.709
22.647,-97.402,152.612
40.693,-91.346,143.102
99.940,-3.453,63.076
50.088,-86.552,183.453
94.217,33.514,180.096
16.820,-98.575,73.976
58.321,-81.232,101.832
-80.541,-59.272,167.235
-76.611,-64.271,139.704
49.479,86.901,36.392
-87.113,-49.106,14.601
-2.691,99.964,165.585
-99.465,-10.335,62.570
-9.166,-99.579,161.315
-44.458,89.574,115.607
-85.527,51.818,183.655
-7.216,99.739,97.781
-98.735,15.858,186.623
-97.006,24.286,69.955
54.541,-83.817,105.654
-59.871,-80.097,14.398
98.874,14.965,135.881
-39.685,91.788,137.144
98.337,-18.164,55.269
93.634,-35.110,84.502
73.294,68.029,35.140
96.741,25.321,36.211
-91.061,41.327,20.818
67.174,-74.079,43.520
76.170,64.792,172.966
-87.231,48.896,192.396
-23.028,-97.312,161.413
24.987,-96.828,101.108
85.950,51.114,13.521
-97.417,22.582,191.296
95.763,28.799,192.809
-74.920,66.235,19.768
-43.615,-89.987,175.518
-16.816,-98.576,62.972
87.441,-48.520,33.144
-70.032,-71.383,162.526
65.140,-75.874,57.327
83.652,54.794,111.384
-98.993,-14.153,40.124
-90.594,-42.341,14.395
-55.801,-82.984,164.312
25.970,96.569,169.894
99.534,9.647,123.522
-47.618,-87.935,168.676
-71.494,69.919,136.717
27.936,-96.019,129.703
-97.692,-21.360,194.779
0.244,-100.000,173.801
-12.541,99.211,150.624
75.023,66.118,138.987
-99.007,-14.056,125.871
52.765,84.946,195.924
58.972,80.761,112.019
94.576,-32.486,44.812
99.173,-12.835,5.356
-24.340,-96.992,52.330
-66.371,-74.799,62.403
27.079,-96.264,93.791
98.439,17.601,10.952
86.546,-50.098,122.102
-91.608,40.100,172.104
-46.040,88.771,64.023
88.700,46.178,87.802
-37.685,-92.627,152.065
28.817,-95.758,31.939
43.132,90.220,119.706
-57.632,-81.723,163.676
-71.046,70.374,113.745
-74.152,-67.093,65.159
-18.665,-98.243,142.459
-68.335,-73.010,4.349
91.607,40.101,56.511
75.678,-65.367,18.192
-99.757,-6.965,52.135
-94.285,-33.322,68.563
95.332,30.197,141.116
98.206,-18.858,147.609
88.416,-46.718,9.356
80.206,-59.724,84.111
78.543,-61.896,17.781
-100.000,-0.252,39.873
-97.531,-22.085,190.949
86.011,51.010,39.681
-69.662,-71.744,29.053
66.869,74.354,85.769
99.433,-10.635,183.172
94.927,-31.446,43.219
-53.569,84.441,194.888
46.795,-88.376,116.405
-95.623,29.260,58.751
-77.986,-62.595,159.801
-88.846,-45.896,127.501
19.170,-98.145,196.311
-1.270,99.992,12.328
-18.868,-98.204,92.831
95.861,-28.471,65.891
-19.915,97.997,35.073
91.436,-40.489,106.610
-90.936,-41.601,138.778
-65.654,75.429,158.700
-99.013,14.016,193.348
-48.225,87.604,72.323
-86.552,50.088,95.434
64.113,76.744,136.627
-98.035,-19.728,54.146
-41.731,90.877,130.338
-48.677,-87.353,75.775
-60.379,79.714,188.693
46.132,88.723,18.021
74.919,-66.235,181.800
52.069,85.375,14.558
51.521,-85.707,106.625
-4.230,99.910,159.515
8.518,99.637,132.357
32.132,-94.697,35.764
-14.964,98.874,78.029
98.858,-15.068,72.537
-30.843,-95.125,105.623
-71.674,-69.734,120.412
-99.228,-12.401,185.919
56.665,82.396,96.261
-12.560,99.208,198.299
-41.565,-90.952,27.798
-60.750,79.432,2.750
27.716,96.083,136.913
81.464,-57.997,42.310
84.279,-53.824,38.014
98.869,-14.996,56.108
-58.603,81.029,92.590
63.015,-77.647,89.110
7.591,99.711,65.844
99.295,11.854,106.570
-91.318,-40.756,44.338
-66.702,-74.504,112.594
-98.906,-14.752,37.968
-40.923,-91.243,167.165
84.651,-53.237,63.636
95.061,31.040,108.610
26.409,96.450,114.887
-35.374,93.534,117.479
-56.075,-82.799,58.414
-98.652,-16.364,150.076
99.604,-8.895,43.080
-32.528,-94.562,17.193
-81.413,58.068,160.186
-84.871,-52.886,77.766
-99.356,-11.330,195.632
15.425,-98.803,9.397
95.605,29.320,108.993
-29.101,-95.672,64.111
-97.468,-22.362,13.292
37.593,-92.665,22.838
-53.343,-84.584,125.357
67.173,74.079,18.361
-14.853,98.891,23.821
22.435,-97.451,154.413
-53.016,84.790,181.773
85.437,51.967,89.315
34.405,-93.895,89.075
-27.038,96.275,65.419
83.571,-54.918,63.084
-92.473,-38.062,72.761
38.402,-92.332,180.297
98.355,18.064,77.602
94.391,33.022,54.150
97.851,-20.620,76.100
73.015,-68.328,18.326
3.156,-99.950,167.927
78.189,-62.341,7.631
-54.315,-83.964,27.717
99.783,6.587,24.080
-89.576,-44.454,64.426
-98.190,18.942,111.740
-99.666,-8.171,126.663
-69.873,-71.539,182.021
-44.228,89.688,85.436
99.951,-3.144,82.234
-77.637,63.028,9.697
-64.015,-76.825,84.458
-94.809,-31.800,128.039
54.258,-84.000,27.621
-86.848,49.573,132.725
-94.291,-33.304,127.495
96.168,27.418,153.094
-99.240,-12.303,13.954
-35.870,93.345,133.053
-24.076,-97.058,48.033
-92.743,-37.401,178.049
-41.207,91.115,4.444
97.574,21.894,64.142
90.330,-42.902,154.760
6.671,-99.777,124.163
99.782,-6.600,63.605
69.565,-71.838,79.849
80.229,59.694,66.903
-91.468,-40.418,150.930
73.776,67.506,67.725
90.289,42.987,57.114
95.357,30.116,6.670
-87.187,-48.973,42.644
53.527,-84.468,36.444
47.143,88.190,51.201
96.738,-25.332,16.896
65.133,75.879,41.823
93.329,-35.912,44.489
-7.293,99.734,174.845
76.039,64.947,182.129
97.754,21.073,75.468
-88.450,-46.654,107.093
-8.088,99.672,103.467
-94.092,-33.863,76.511
8.012,99.679,117.317
-72.045,69.350,99.688
97.117,23.840,86.157
-46.989,88.273,157.242
42.389,-90.571,17.655
-90.441,-42.667,81.114
-91.013,41.432,7.808
-76.717,-64.145,15.625
-92.163,38.808,134.728
85.480,51.896,107.748
88.243,-47.044,7.458
99.707,7.650,68.535
-34.847,93.732,173.609
-8.525,-99.636,112.620
78.227,62.294,56.685
16.877,98.566,157.576
90.616,-42.294,58.617
94.879,31.591,19.726
67.823,73.485,102.748
64.952,76.034,198.356
-92.801,-37.256,119.930
2.265,-99.974,139.132
-44.286,89.659,141.688
16.943,-98.554,146.904
87.005,49.297,180.979
-36.871,92.954,77.594
92.623,37.696,69.700
-66.095,-75.043,107.722
-82.933,55.876,76.386
-87.546,-48.328,161.032
80.887,58.799,131.280
-97.422,22.559,167.104
15.306,-98.822,169.419
-99.678,8.020,142.576
-65.512,75.552,183.484
-55.324,-83.302,196.479
2.635,-99.965,22.053
-52.739,84.962,122.548
-66.684,-74.520,0.318
-55.554,83.149,42.464
90.765,41.973,18.038
-42.465,90.536,140.062
73.714,67.574,100.552
-4.936,-99.878,39.292
17.617,-98.436,5.897
-51.429,-85.762,106.842
-34.923,93.704,181.280
52.771,-84.942,141.814
99.542,-9.558,163.193
6.977,99.756,165.625
12.473,99.219,123.856
71.956,69.443,9.679
-29.746,-95.473,147.974
98.569,-16.857,47.878
-42.887,-90.336,86.829
14.208,-98.986,60.470
-99.271,12.052,22.162
12.054,-99.271,118.126
51.118,-85.947,37.548
72.557,-68.814,36.343
-99.723,-7.441,55.435
99.249,12.234,198.166
96.190,-27.339,96.923
-89.082,45.436,68.239
96.996,24.326,90.097
-91.285,-40.829,70.198
-30.628,95.194,8.238
73.941,67.326,59.604
78.042,62.525,120.670
-43.698,89.947,166.747
-71.522,-69.890,155.594
-23.636,97.167,119.068
50.078,86.557,118.364
20.568,97.862,115.847
25.251,-96.760,18.836
-7.825,99.693,36.844
-99.252,12.205,49.893
99.946,3.300,33.192
98.213,18.819,165.619
82.538,-56.458,104.827
-99.732,-7.315,160.370
-19.780,98.024,117.094
-99.453,-10.445,173.230
-71.752,69.654,157.106
-63.679,77.104,163.032
17.791,98.405,124.107
85.033,52.624,189.383
53.150,-84.706,154.087
99.014,-14.007,10.185
85.578,-51.734,155.706
-88.792,45.999,95.339
-70.484,70.936,4.505
24.354,96.989,5.836
37.196,92.825,104.965
-91.797,-39.665,158.652
-97.125,-23.805,19.349
95.632,29.233,118.414
-66.034,-75.096,91.503
79.234,61.007,143.056
57.947,-81.499,64.372
71.407,70.007,45.968
38.364,-92.348,149.275
47.917,-87.772,135.903
-59.073,-80.687,88.725
91.331,-40.727,137.360
-44.243,-89.680,21.055
-99.499,9.995,66.811
-68.880,-72.495,191.151
-99.706,7.664,123.168
-75.141,65.983,26.966
-21.698,97.618,2.576
-93.321,35.934,149.900
74.715,-66.466,69.557
-80.431,-59.421,196.250
59.190,80.601,115.203
-34.920,93.705,193.035
93.720,34.880,20.012
-78.166,-62.371,53.259
8.992,-99.595,88.334
16.147,-98.688,179.644
-97.847,-20.638,164.695
-96.396,26.605,186.295
-89.759,44.083,193.555
-16.783,-98.582,143.363
-29.181,-95.648,66.067
99.213,-12.521,145.169
-55.286,83.327,35.461
54.795,-83.651,144.622
91.099,-41.243,172.849
99.571,9.252,90.638
66.977,-74.256,194.990
96.492,-26.256,84.372
-93.361,35.830,81.203
15.679,-98.763,106.940
-55.951,-82.882,121.400
-97.512,22.169,129.823
94.088,-33.874,94.260
-94.439,-32.882,161.601
83.164,-55.531,14.483
-69.341,-72.054,47.031
90.124,-43.331,184.795
-85.347,52.114,130.175
77.281,63.464,195.546
59.374,-80.465,1.212
96.692,25.507,132.452
-69.446,-71.953,17.783
-85.563,-51.759,126.339
-86.180,-50.725,4.025
99.801,-6.308,191.815
55.799,82.985,9.701
-1.077,-99.994,149.066
99.450,10.474,2.371
88.173,-47.176,90.970
79.507,60.652,12.555
-98.304,-18.340,84.795
-73.042,-68.299,183.825
18.151,98.339,27.727
-98.980,-14.248,42.178
20.663,-97.842,13.453
-41.099,91.164,127.351
-84.744,53.089,138.524
38.429,-92.321,71.793
-44.315,89.645,64.444
-43.156,90.208,158.248
-74.961,-66.188,75.327
20.026,97.974,187.286
96.674,-25.575,166.498
-77.275,-63.470,25.560
29.435,95.570,192.537
-95.269,-30.394,70.734
24.852,-96.863,183.926
2.324,-99.973,99.059
24.279,-97.008,159.768
-40.154,91.584,32.696
-45.484,-89.057,168.535
21.777,-97.600,12.906
85.919,51.166,168.000
-92.075,-39.015,70.139
21.949,-97.561,118.962
-83.787,-54.586,45.908
61.396,78.934,171.350
-42.995,90.285,68.857
-83.011,-55.760,120.874
95.631,-29.237,63.972
79.309,-60.911,29.439
-93.371,-35.802,72.669
92.876,-37.068,107.636
97.735,-21.164,66.779
78.263,62.248,5.723
-83.270,55.373,95.202
-50.428,86.354,20.706
68.154,73.178,47.078
99.148,-13.028,148.267
-14.958,-98.875,3.812
93.811,-34.635,42.850
89.311,-44.985,197.283
-63.309,77.408,2.199
-12.225,99.250,189.047
75.039,66.099,56.268
-2.894,99.958,101.070
-87.216,-48.923,198.686
57.357,81.915,2.769
46.839,-88.352,73.894
69.961,71.453,187.792
-82.092,-57.104,124.319
-72.665,68.701,131.194
-75.439,65.642,6.052
-92.086,38.990,105.009
-76.169,64.794,124.621
97.977,-20.011,187.987
-90.248,-43.073,64.746
-94.902,-31.523,72.707
99.977,2.138,176.192
99.995,-1.037,123.957
50.851,-86.105,149.316
-88.855,45.878,32.708
-37.423,92.734,133.365
-99.228,12.398,144.782
11.382,99.350,9.256
-41.550,-90.960,22.846
-79.360,60.845,38.687
38.622,92.240,64.700
-69.958,71.456,14.510
73.919,-67.349,79.605
96.015,27.950,51.906
77.940,-62.653,130.577
-99.584,-9.109,35.880
8.347,99.651,71.326
-49.520,-86.878,155.756
-98.474,17.406,59.881
-96.772,-25.204,176.014
-10.583,-99.438,18.277
12.015,99.276,9.874
99.570,-9.261,120.376
-40.544,91.412,21.273
-93.644,-35.082,183.367
66.854,-74.367,175.439
-27.791,-96.061,104.584
-11.805,99.301,24.959
-88.193,47.138,117.873
56.438,82.551,198.567
25.219,96.768,107.073
88.522,46.518,21.094
83.796,54.574,147.780
99.641,8.471,46.943
99.849,-5.499,149.870
38.850,-92.145,15.386
-65.832,-75.274,141.183
-99.618,-8.737,86.043
33.044,94.383,126.948
14.086,-99.003,102.609
58.621,-81.016,27.529
16.724,98.592,119.439
4.790,99.885,182.841
40.591,-91.391,156.835
-28.687,95.797,179.028
-13.053,99.144,154.364
72.057,-69.338,8.150
-99.656,8.290,128.851
16.180,98.682,171.033
97.456,22.415,180.906
92.561,37.848,189.159
-27.606,96.114,175.209
-83.997,54.263,115.465
-35.818,93.365,175.842
-17.202,98.509,43.528
92.091,-38.979,176.035
75.854,-65.163,145.278
6.233,99.806,123.890
-81.506,57.938,20.436
-78.692,-61.705,78.048
-53.531,-84.466,70.938
99.932,3.676,17.238
99.069,13.614,74.703
97.812,20.802,112.388
5.310,99.859,33.014
99.665,-8.173,102.631
-27.034,-96.277,119.495
64.597,76.336,75.210
-61.661,78.727,186.428
47.235,-88.141,103.139
70.167,-71.250,90.026
-57.314,81.946,107.176
-64.283,-76.601,22.775
39.907,91.692,195.131
-30.257,95.313,187.727
-24.717,96.897,93.593
96.806,-25.072,66.999
64.443,-76.467,108.104
-26.711,-96.367,20.633
-42.461,90.538,105.087
-48.516,87.442,178.472
-23.873,97.109,40.234
-84.131,54.055,166.744
-96.979,24.393,187.271
-7.436,-99.723,74.191
71.858,-69.544,44.051
-41.525,-90.971,13.379
-46.065,88.758,29.397
92.999,-36.758,83.510
93.898,-34.396,176.035
-43.935,89.831,143.303
-83.159,-55.539,175.895
-81.801,-57.520,135.417
-77.184,-63.582,163.584
22.369,-97.466,76.566
97.540,-22.046,55.663
-84.587,53.338,185.059
69.985,71.429,92.717
-74.363,66.859,58.022
-76.336,-64.597,99.441
71.306,-70.110,2.587
-52.117,85.345,6.087
-65.497,75.566,29.559
-27.266,96.211,37.631
-80.238,59.682,2.591
81.657,-57.725,98.267
-99.144,-13.055,71.057
32.233,94.663,172.779
-1.025,-99.995,141.994
38.889,-92.128,161.454
-77.895,62.708,183.399
90.432,-42.686,92.410
-50.249,-86.458,161.600
95.391,30.010,99.429
-42.429,90.553,169.208
82.194,56.958,57.279
95.249,-30.457,153.701
-88.881,-45.827,31.420
-98.014,19.832,108.753
56.910,-82.227,102.716
-98.378,-17.937,155.455
8.966,-99.597,177.927
-84.404,-53.628,154.852
-82.126,57.055,196.040
10.455,99.452,107.270
72.969,-68.378,197.120
88.153,47.213,197.759
-69.055,72.328,132.690
88.114,-47.286,124.204
-94.517,32.657,191.415
-72.147,-69.245,40.033
97.279,23.169,14.351
-98.713,-15.989,150.496
97.626,21.660,176.895
16.386,-98.648,196.275
-84.928,-52.795,145.757
-19.025,-98.174,140.367
42.154,90.681,165.198
36.713,93.017,153.836
-86.490,50.194,168.292
46.721,-88.415,120.961
46.229,-88.673,76.454
-69.681,-71.726,161.755
-7.357,99.729,199.682
-99.907,-4.303,45.114
-13.667,-99.062,4.603
-85.157,-52.424,14.530
96.561,25.999,130.124
46.031,-88.776,161.556
60.683,-79.483,3.426
61.088,-79.172,119.347
69.194,-72.195,125.717
-78.266,-62.245,47.019
76.016,64.973,59.961
-23.889,-97.105,19.895
54.990,-83.523,171.077
-99.962,2.760,72.902
46.745,-88.402,81.734
-1.786,99.984,142.932
99.862,5.258,69.253
2.278,99.974,97.617
-96.100,-27.655,101.360
-55.904,-82.914,190.795
54.234,-84.016,100.800
89.181,45.241,67.998
45.624,88.985,191.099
-94.571,32.500,138.068
-39.382,-91.919,122.696
91.743,39.790,114.428
93.190,-36.270,69.286
98.043,-19.688,150.342
-45.476,-89.061,35.753
57.332,81.933,96.175
-71.347,-70.069,38.779
5.739,-99.835,31.098
21.923,-97.567,81.736
-98.971,14.309,63.506
-99.481,10.172,100.392
14.838,98.893,132.185
71.316,70.100,49.061
98.843,-15.167,59.884
84.222,-53.913,193.882
-64.222,-76.652,66.954
-22.959,-97.329,20.301
-43.033,90.267,15.867
67.623,73.669,115.804
-39.322,-91.944,99.803
-20.845,-97.803,44.563
86.372,50.397,165.558
37.267,-92.796,67.507
-48.046,87.702,86.272
68.820,72.552,59.863
96.074,27.744,176.893
-10.664,99.430,150.170
36.468,93.113,44.677
80.076,59.899,104.515
84.815,52.976,193.267
-95.563,29.458,126.963
84.525,-53.437,166.063
-35.028,93.664,64.437
-99.908,-4.285,60.777
-93.704,-34.922,104.291
95.350,30.138,140.110
-31.029,95.064,39.603
-94.132,33.753,55.900
67.658,-73.637,66.677
2.292,99.974,21.413
-85.997,51.035,38.952
-86.469,50.231,20.933
72.044,69.352,138.517
-46.270,-88.651,140.411
99.717,7.513,183.657
82.574,-56.404,167.390
62.707,77.897,47.132
-46.982,-88.276,148.444
-91.250,40.907,50.062
98.472,-17.415,36.032
87.662,-48.118,80.944
75.667,-65.379,192.634
-79.903,60.129,164.142
68.244,73.094,26.198
-88.724,-46.130,180.540
99.523,9.753,196.075
64.742,76.214,62.284
-29.556,-95.533,88.798
12.015,-99.276,197.775
-92.963,-36.851,99.924
99.427,-10.687,94.702
-96.421,-26.515,90.377
23.866,-97.110,196.012
-76.178,-64.783,110.580
-90.772,41.957,146.628
-53.048,84.770,164.107
41.684,90.898,5.158
51.849,-85.508,195.978
-43.595,-89.997,35.938
-99.448,-10.492,39.591
92.541,37.896,58.714
10.258,-99.472,53.095
-67.989,73.332,176.138
-34.019,94.036,114.923
38.741,92.191,2.552
65.544,-75.524,164.895
20.903,97.791,15.589
98.193,-18.924,171.104
64.952,-76.034,103.914
66.300,74.862,177.821
38.727,92.197,149.324
44.515,-89.546,127.894
39.531,-91.855,142.987
-82.154,57.015,157.061
26.259,-96.491,31.739
-43.031,-90.268,139.911
-47.078,88.225,101.837
41.411,-91.023,194.544
-83.046,-55.708,10.405
65.536,75.531,31.008
99.995,1.046,157.737
-89.624,-44.358,59.901
66.865,-74.358,132.271
64.072,76.777,107.205
-79.095,61.188,103.564
-72.431,-68.948,112.941
-72.781,-68.577,196.568
-27.417,96.168,119.452
91.652,-40.000,66.036
25.220,-96.768,29.579
45.328,89.137,194.755
-51.454,85.747,47.797
-71.124,70.294,164.062
-44.384,-89.611,140.701
-99.137,-13.109,106.429
-98.542,-17.016,115.968
51.643,-85.633,70.137
-93.862,34.495,159.352
-99.331,11.549,196.780
74.517,-66.688,156.956
-92.459,38.097,164.171
-42.498,-90.520,188.201
27.246,96.217,62.059
-57.784,81.615,20.541
33.324,-94.284,54.908
-90.294,42.976,96.069
-93.285,36.026,176.150
77.651,63.010,131.011
45.897,88.845,54.509
36.415,93.134,2.043
-72.633,-68.734,0.330
8.149,99.667,155.113
-99.286,-11.926,34.733
42.577,90.483,102.848
92.219,-38.673,193.046
48.716,-87.331,5.375
-17.931,98.379,17.735
-99.999,0.317,66.713
-88.776,-46.031,92.498
77.101,63.682,87.994
-98.135,19.223,67.136
22.886,97.346,174.547
83.422,55.144,21.046
-95.740,-28.876,29.380
95.824,28.596,181.556
-99.216,-12.494,158.586
89.207,45.191,113.441
-65.726,-75.366,117.261
57.091,-82.101,184.578
-60.371,79.721,65.876
72.382,-68.999,7.997
-75.764,65.267,49.089
-99.549,-9.490,29.601
47.533,87.981,157.435
-4.272,-99.909,131.525
-2.186,99.976,28.092
31.377,-94.950,130.067
11.488,99.338,139.354
32.991,94.401,134.570
-79.932,60.090,177.182
-99.581,-9.147,54.004
-98.579,16.796,74.286
93.871,-34.471,64.194
58.497,81.105,120.527
54.672,83.732,184.104
70.134,-71.283,52.684
80.631,59.150,63.408
-31.902,94.775,68.189
-61.311,78.999,156.921
9.995,-99.499,143.082
76.142,-64.825,186.430
-94.496,-32.718,160.426
-99.043,13.804,96.271
-73.380,-67.936,74.749
22.723,97.384,177.724
51.739,85.575,16.200
37.270,-92.795,197.968
100.000,0.302,49.551
-91.746,-39.783,120.162
-58.951,80.776,113.431
70.854,70.567,33.349
82.951,-55.850,198.982
94.583,32.466,67.227
-35.264,-93.576,74.611
-37.292,-92.787,150.307
-97.171,23.616,93.577
-97.199,23.501,57.004
98.199,18.895,100.784
44.767,89.420,153.352
-42.932,-90.315,91.452
-0.558,99.998,91.552
-96.711,25.435,128.095
-86.376,-50.391,187.757
19.951,97.990,117.364
5.615,-99.842,79.764
-32.915,-94.428,178.059
55.280,-83.331,136.619
-73.924,-67.344,117.615
-90.329,42.903,114.769
-37.245,-92.805,149.374
-13.741,-99.051,118.495
90.297,-42.969,81.509
-70.240,-71.178,131.468
25.272,-96.754,115.572
-84.610,53.303,144.794
62.681,-77.917,134.915
-46.346,-88.612,146.800
97.495,-22.241,55.771
78.287,-62.219,141.812
-95.198,-30.615,0.549
-98.483,-17.353,36.609
82.085,-57.114,72.982
-15.310,98.821,86.467
-94.718,-32.070,51.052
-97.980,19.996,67.714
-9.138,99.582,41.323
85.539,51.798,99.832
-52.580,-85.061,24.624
-81.245,-58.304,80.515
-8.977,-99.596,87.597
-99.577,9.191,151.871
71.182,70.236,177.356
-2.018,99.980,65.853
-96.935,24.570,132.997
98.361,-18.030,36.956
74.984,-66.162,130.751
54.231,84.018,106.786
94.944,-31.396,59.072
96.617,-25.789,170.705
94.276,-33.346,108.555
59.110,80.660,80.836
-0.787,-99.997,128.073
71.930,69.470,148.377
-80.128,59.830,123.828
47.836,-87.816,128.238
31.921,-94.768,55.616
52.624,-85.034,61.360
95.216,30.559,140.069
-82.697,-56.224,8.905
-82.474,-56.551,71.235
-6.793,-99.769,60.064
7.327,-99.731,70.549
-28.801,95.763,97.119
98.331,-18.193,77.128
-52.900,-84.862,163.279
73.111,-68.226,35.336
0.390,-99.999,117.969
-83.514,-55.004,137.763
-42.567,90.488,131.677
-98.581,-16.789,44.266
-44.297,-89.654,30.112
-62.974,-77.680,60.428
26.510,-96.422,95.118
-4.372,99.904,151.384
-1.652,-99.986,147.491
-65.243,-75.785,196.425
11.411,99.347,112.024
-9.081,99.587,133.691
-76.374,64.552,180.195
75.440,65.641,93.386
37.116,92.857,89.383
-84.271,-53.837,72.449
-10.437,99.454,156.095
-47.787,-87.843,103.234
-99.784,6.563,40.783
98.405,-17.788,33.261
-68.973,-72.406,164.776
-84.812,52.980,95.003
-75.947,-65.054,130.862
-97.922,-20.279,189.804
-85.717,-51.503,14.025
60.051,-79.962,31.273
-93.115,36.464,48.639
20.742,97.825,170.236
-46.718,88.416,41.774
-39.580,-91.834,7.919
-50.918,-86.066,167.199
-2.666,-99.964,22.167
-91.432,40.498,98.602
-98.810,15.381,192.239
-89.765,44.070,17.321
75.913,-65.093,87.938
58.322,-81.232,101.013
62.058,-78.415,50.366
-21.279,97.710,117.961
95.889,28.379,186.312
-99.011,-14.031,110.820
-44.860,89.373,153.196
7.428,-99.724,72.525
7.561,-99.714,129.046
68.376,72.971,144.968
-14.405,98.957,97.099
-62.544,-78.027,163.199
-52.712,-84.979,31.704
88.120,-47.274,84.887
-36.710,-93.018,150.376
-60.572,79.567,140.634
-38.044,92.481,77.382
-29.222,-95.635,114.507
-4.415,99.902,50.481
5.082,99.871,142.439
-12.050,99.271,19.880
-84.280,-53.822,177.109
99.923,3.911,160.278
18.752,98.226,60.129
33.486,-94.227,82.550
98.710,16.013,123.419
44.604,-89.501,36.600
98.890,14.859,121.553
36.600,-93.061,157.102
38.716,-92.201,76.921
99.950,3.160,2.478
35.348,93.544,146.900
-82.291,-56.818,141.238
-27.924,96.022,114.959
-90.281,43.004,106.914
-95.098,30.925,106.541
25.366,-96.729,175.418
93.373,35.797,31.374
67.561,73.726,22.951
96.942,24.542,179.290
95.087,30.960,24.446
95.402,29.973,84.093
-72.123,69.270,108.797
-35.567,93.461,104.001
-69.950,71.463,182.890
98.663,-16.297,116.582
-66.565,74.627,167.823
98.114,19.329,117.285
-46.386,-88.591,59.674
-31.071,95.050,32.942
-41.531,-90.968,87.681
-15.083,-98.856,45.265
-65.097,-75.910,168.298
-11.273,99.363,100.537
-85.104,-52.510,36.230
-99.688,-7.888,7.055
1.948,-99.981,89.537
-96.682,-25.547,165.614
-81.356,58.148,90.232
96.729,25.365,35.473
-73.013,-68.331,120.913
-91.798,39.663,165.708
-99.992,1.245,9.882
-97.868,-20.538,145.582
98.173,-19.026,73.725
-63.385,-77.345,61.540
-31.885,-94.780,174.864
-94.019,34.066,112.490
-96.860,24.861,170.512
99.387,11.060,89.016
16.617,-98.610,121.351
-94.595,-32.431,4.560
32.942,-94.418,155.908
-79.137,61.134,61.819
54.647,-83.748,146.006
-22.955,-97.330,23.224
-50.323,86.415,107.372
-23.968,97.085,195.038
-79.631,-60.489,83.617
66.023,75.107,9.546
77.804,62.822,156.394
-97.505,-22.200,130.839
95.816,-28.622,152.494
-57.150,82.061,82.231
33.526,-94.212,43.817
-99.628,-8.617,192.641
-89.798,44.003,46.967
-18.772,98.222,37.739
-89.242,45.120,190.638
74.683,-66.501,40.936
-29.179,95.648,96.000
87.486,48.438,110.632
-37.466,-92.716,178.420
21.882,-97.577,157.772
-4.167,-99.913,136.753
39.416,-91.904,196.340
46.997,88.268,45.716
-74.851,66.312,177.815
15.074,-98.857,101.869
-98.924,14.633,180.866
15.843,98.737,92.771
38.388,92.338,191.239
66.901,-74.325,190.487
-98.794,15.483,51.695
-22.679,-97.394,30.427
92.751,-37.381,75.878
-88.158,-47.203,197.076
-6.547,99.785,77.837
77.404,-63.314,177.843
-89.107,-45.386,187.364
-78.652,61.756,65.668
-31.471,-94.919,139.199
-41.674,90.902,146.948
33.118,94.357,32.548
98.810,-15.384,163.863
-26.842,-96.330,92.156
44.512,89.547,19.408
26.530,-96.416,88.495
63.810,-76.995,186.151
-99.510,9.888,25.646
1.539,99.988,45.273
-39.197,91.998,102.636
-95.267,30.401,39.302
67.975,73.345,94.544
73.398,67.917,4.688
-97.938,20.202,48.934
-51.978,85.430,43.898
-47.283,88.115,14.283
-96.640,-25.703,17.181
64.238,76.638,109.837
-3.005,-99.955,136.272
-89.972,43.646,83.318
-87.363,48.659,38.589
-59.926,80.056,148.846
74.016,-67.243,23.959
63.722,77.068,111.694
40.749,-91.321,16.819
-93.651,35.064,174.735
62.886,77.752,23.487
-9.558,99.542,195.764
-20.525,97.871,122.973
19.131,98.153,131.584
18.360,-98.300,61.638
-88.896,-45.799,5.018
19.459,98.089,128.694
-71.922,69.479,92.139
97.556,21.973,141.824
41.823,90.834,181.659
-99.581,9.143,136.248
92.474,-38.060,92.117
27.116,-96.254,162.696
-81.796,57.527,78.335
-10.782,99.417,88.568
-1.690,99.986,193.432
-13.403,99.098,173.040
99.965,-2.647,149.820
-83.900,54.413,57.674
84.578,-53.353,128.776
91.176,-41.072,177.469
-79.768,-60.308,46.584
56.940,82.206,124.758
19.805,-98.019,60.248
40.100,91.608,65.876
99.984,-1.796,110.044
-0.001,100.000,64.165
-4.219,-99.911,192.312
87.015,49.279,115.294
86.263,50.584,78.523
-56.011,82.842,28.182
-22.920,-97.338,79.878
46.931,-88.304,166.751
-82.138,57.039,119.693
72.197,69.192,157.721
-61.572,-78.796,183.379
86.927,49.433,186.889
-57.934,81.509,74.696
-93.382,35.774,8.887
-76.330,-64.605,74.450
-53.198,-84.676,164.629
60.785,-79.405,51.065
94.100,-33.840,159.667
-87.917,-47.651,162.785
-96.712,-25.434,0.098
-88.837,45.912,55.846
88.892,-45.806,189.707
-53.621,84.408,19.863
89.282,-45.041,170.386
48.835,-87.265,111.251
44.312,89.646,5.239
8.617,99.628,165.573
37.517,92.696,124.565
99.911,-4.223,43.229
-59.420,80.432,137.067
-65.456,-75.601,86.862
38.455,92.310,119.042
89.983,-43.623,141.072
93.916,34.349,112.000
-82.020,57.208,78.807
96.448,26.417,100.378
21.156,97.736,24.259
-28.910,-95.730,10.620
-98.599,-16.679,108.641
-84.345,-53.721,132.363
47.975,-87.741,54.437
-98.238,-18.690,145.057
-55.806,-82.980,3.558
40.520,-91.423,76.898
3.348,99.944,198.596
36.501,-93.101,150.814
31.873,94.785,92.369
-37.641,92.645,122.033
11.006,-99.392,32.514
-22.243,-97.495,95.600
90.725,-42.059,183.157
-88.231,-47.066,141.370
-43.026,-90.271,115.285
12.565,99.207,119.470
-99.723,-7.434,124.288
-97.906,20.359,60.792
99.907,-4.313,38.702
29.763,95.468,58.419
-5.017,99.874,48.008
-11.651,99.319,35.568
-26.073,96.541,35.480
95.835,28.560,159.620
-47.800,-87.836,154.522
73.304,68.018,142.403
-99.083,-13.511,14.835
-99.384,11.081,182.016
45.114,-89.245,112.739
-82.861,-55.983,103.311
94.316,-33.235,29.818
78.080,-62.478,111.959
84.784,-53.026,188.267
50.481,86.323,74.251
-76.221,64.733,130.544
96.763,25.238,75.786
-0.554,99.998,66.493
-83.888,-54.431,32.131
54.514,-83.834,99.641
86.757,49.732,30.585
86.004,51.023,49.988
64.602,-76.332,159.365
-99.154,-12.979,13.415
95.648,29.180,134.863
-99.639,8.489,55.335
58.431,-81.153,139.452
80.188,-59.748,29.830
-99.572,9.239,126.133
-73.106,-68.231,89.163
96.606,-25.830,3.232
-39.155,92.016,187.321
-96.440,26.446,134.868
-35.846,93.354,37.856
86.883,49.510,60.228
-74.493,-66.715,69.956
97.143,23.731,113.736
-72.205,-69.184,150.332
98.376,17.950,122.223
-99.876,4.985,14.244
-72.797,68.560,130.644
-83.276,55.364,113.890
91.184,41.055,193.373
13.092,-99.139,72.736
61.291,-79.015,109.981
-99.203,12.598,88.893
78.282,62.225,127.952
-100.000,-0.216,103.589
93.637,-35.101,79.914
-61.024,79.222,54.582
-98.386,17.892,195.501
-29.742,95.475,117.511
81.830,-57.479,17.971
-62.954,77.697,39.860
98.334,-18.176,1.767
-36.788,92.987,43.500
98.825,15.286,38.916
90.187,-43.200,121.093
99.991,-1.342,79.816
31.095,95.043,164.340
-79.415,60.772,28.390
-95.111,30.885,194.160
67.315,73.951,49.197
43.822,89.887,89.833
-45.226,89.189,88.023
89.848,43.902,72.974
-91.156,-41.116,35.962
99.924,-3.892,4.634
-38.758,92.184,142.202
-95.499,29.663,62.586
-97.777,-20.968,53.580
78.531,-61.910,54.831
-96.425,-26.498,127.198
-99.362,11.281,126.554
-98.922,14.643,141.541
75.635,65.417,186.224
9.359,99.561,190.243
21.963,-97.558,49.017
-6.276,99.803,104.701
-46.226,-88.674,198.336
19.160,98.147,98.644
99.979,-2.046,52.793
-59.157,80.625,195.223
69.525,-71.877,54.488
-95.242,-30.480,43.704
68.424,72.926,73.264
31.121,-95.034,132.242
98.731,-15.880,24.426
98.926,14.616,6.088
-60.396,79.701,100.272
98.019,-19.805,48.513
-85.824,51.326,199.915
79.597,-60.533,166.345
-88.894,45.803,187.090
-2.861,-99.959,91.163
25.535,-96.685,19.860
79.743,60.342,175.125
-97.156,-23.678,70.807
-91.179,-41.065,36.243
-3.982,99.921,159.690
-25.954,96.573,158.522
-66.461,-74.719,135.326
91.208,-41.002,12.454
51.660,-85.623,28.888
92.981,36.804,46.206
61.271,79.031,128.363
57.681,-81.688,13.260
-98.176,19.012,19.743
97.603,21.764,77.795
-19.741,-98.032,175.714
-11.995,-99.278,146.760
78.898,-61.442,149.725
-70.713,-70.708,132.313
69.749,71.659,35.367
69.132,72.255,116.230
45.733,-88.930,188.515
-55.678,83.066,186.725
-14.458,-98.949,174.551
-7.530,99.716,68.016
-95.309,30.267,183.657
-85.300,52.191,153.999
86.863,-49.547,18.351
-99.918,4.043,75.216
-82.185,56.970,193.325
-34.193,-93.973,150.294
-71.985,69.412,143.819
-82.462,-56.569,106.035
-17.893,98.386,82.949
99.374,11.172,196.496
-62.203,-78.300,177.582
89.909,43.777,131.061
-45.049,89.278,80.251
-87.429,48.540,157.369
-96.553,-26.029,137.512
60.000,80.000,133.267
-88.193,47.139,15.022
-99.513,-9.858,70.431
43.040,90.264,73.408
-0.358,99.999,86.866
89.227,45.149,150.176
29.761,95.469,113.703
15.708,98.759,41.482
-96.226,-27.213,102.976
-82.707,-56.209,64.607
81.833,-57.475,162.925
-12.503,99.215,18.198
70.067,-71.348,41.944
92.522,-37.942,79.471
-9.549,-99.543,68.748
63.357,77.368,110.362
16.155,98.686,178.632
-75.756,65.276,148.220
12.010,-99.276,193.303
-57.168,-82.048,161.969
65.858,-75.251,105.716
-3.300,-99.946,170.591
82.129,57.052,56.060
18.344,98.303,86.072
77.749,-62.889,130.383
-67.929,73.387,130.608
-99.494,10.050,80.653
-76.120,64.852,29.661
-78.489,-61.964,136.190
-94.801,31.825,105.899
79.051,61.245,49.728
-23.487,-97.203,63.674
75.646,65.403,150.958
4.565,99.896,137.227
98.990,-14.174,19.939
22.866,-97.351,190.908
-97.412,22.603,102.869
99.775,6.701,6.816
-96.718,25.409,19.350
59.792,80.155,81.780
83.152,55.549,183.041
-74.680,66.505,189.005
24.138,-97.043,175.043
88.065,-47.376,111.072
99.188,-12.715,87.593
-99.999,-0.437,14.176
-2.844,-99.960,3.045
-47.513,87.991,5.654
-88.894,45.803,156.267
-38.638,92.234,85.044
-97.614,-21.714,13.153
-56.038,-82.824,197.234
-92.247,38.606,49.383
-26.641,96.386,106.114
68.728,72.639,133.602
-52.432,85.152,54.239
99.844,-5.588,119.098
16.305,98.662,103.759
98.262,-18.560,19.311
-99.386,-11.067,153.181
95.731,28.905,17.031
14.612,-98.927,69.079
-75.673,-65.373,67.281
90.199,43.177,144.809
-4.654,99.892,124.944
14.919,98.881,68.511
82.953,55.847,37.609
71.562,-69.849,106.669
92.010,39.169,5.518
86.299,50.522,81.086
66.441,74.737,15.850
40.428,91.464,97.974
-73.907,-67.362,155.439
-57.226,82.007,25.535
49.835,86.698,67.073
97.038,-24.158,183.527
14.772,98.903,53.447
86.564,50.067,178.922
6.357,99.798,136.156
-9.400,-99.557,166.698
14.955,-98.875,170.528
-94.453,-32.843,137.994
94.878,31.594,49.774
-65.824,75.280,159.983
9.464,-99.551,59.641
-2.129,99.977,160.454
92.390,38.263,105.505
-55.096,83.453,170.104
16.365,-98.652,37.647
15.068,-98.858,107.942
99.968,-2.548,163.952
33.759,94.129,134.752
-99.900,-4.481,64.484
99.232,-12.370,148.057
66.670,-74.532,152.223
6.280,-99.803,73.950
-62.296,-78.225,190.524
-34.092,94.009,145.025
-40.461,91.449,144.448
48.283,87.571,112.759
88.655,46.264,33.500
89.600,44.406,63.934
-40.763,91.315,181.910
99.786,-6.546,141.481
78.210,62.315,152.365
98.937,14.543,152.309
-13.374,-99.102,154.338
-41.553,-90.958,130.363
75.117,-66.011,86.749
99.544,9.537,142.171
-92.904,36.999,143.354
-51.886,-85.486,119.673
-47.306,-88.103,195.731
-79.286,60.941,147.111
-93.325,-35.924,192.651
46.376,88.596,43.639
62.729,-77.878,43.806
-43.475,-90.055,41.744
-31.500,-94.909,49.251
-13.783,-99.046,73.271
60.518,-79.609,57.363
-0.547,-99.999,173.370
-76.247,64.703,192.142
-51.620,-85.647,142.688
-49.027,-87.157,3.216
-95.242,-30.479,18.064
-0.855,99.996,177.280
-97.738,-21.151,54.257
-40.361,91.493,19.928
86.205,-50.682,171.986
22.328,97.475,49.861
70.550,-70.871,32.619
-4.434,-99.902,92.416
99.665,8.178,114.724
91.419,-40.529,120.092
-20.651,-97.845,197.259
-98.258,18.583,67.265
100.000,-0.235,124.365
-36.697,-93.023,92.804
86.562,-50.070,55.464
20.824,97.808,22.923
-23.475,-97.206,2.161
-95.691,-29.040,163.127
79.902,60.130,36.641
97.545,-22.020,61.373
-34.313,-93.929,120.826
-22.254,-97.492,176.247
-36.734,-93.008,104.568
-99.603,-8.900,121.345
-95.047,-31.083,90.145
-16.527,98.625,27.374
-73.578,67.722,2.655
-22.470,97.443,185.932
-99.864,-5.215,77.427
46.223,-88.676,186.242
99.518,9.808,15.434
-98.268,18.531,113.843
20.120,-97.955,53.697
64.886,76.091,146.545
-96.075,27.743,67.086
97.645,-21.573,11.918
64.214,76.659,4.019
83.036,-55.723,82.302
61.799,78.619,54.946
19.660,-98.048,103.278
-18.301,98.311,114.464
54.479,83.857,48.153
85.143,52.447,182.212
-97.401,-22.652,19.153
-38.941,-92.107,171.894
31.380,-94.949,137.464
-3.634,99.934,9.730
-16.297,98.663,90.180
-95.183,-30.662,186.304
-93.645,35.081,181.486
-16.783,-98.582,86.238
-89.907,-43.780,111.759
98.633,-16.480,72.162
57.068,82.117,126.990
-41.220,-91.109,61.618
81.031,-58.600,121.073
61.915,-78.527,116.435
99.580,9.154,33.663
98.384,-17.904,85.371
